NCOLS 378
NROWS 32
XLLCORNER 426.75418
YLLCORNER 340.91257
CELLSIZE 5.000000
NODATA_VALUE -99999.0000
328.388 328.827 329.247 329.626 329.989 330.361 330.754 331.152 331.547 331.931 332.31 332.688 333.045 333.363 333.641 333.887 334.096 334.26 334.374 334.442 334.471 334.469 334.431 334.355 334.252 334.137 334.005 333.853 333.69 333.53 333.371 333.207 333.047 332.902 332.777 332.667 332.562 332.455 332.349 332.248 332.136 331.998 331.828 331.634 331.419 331.182 330.912 330.609 330.301 330.017 329.749 329.483 329.254 329.092 329.005 328.976 329.009 329.11 329.293 329.553 329.863 330.197 330.562 330.97 331.391 331.793 332.173 332.547 332.904 333.233 333.525 333.788 334.033 334.272 334.501 334.713 334.928 335.164 335.424 335.697 335.99 336.31 336.667 337.056 337.459 337.859 338.268 338.694 339.099 339.448 339.743 340 340.196 340.307 340.315 340.237 340.091 339.897 339.636 339.3 338.942 338.616 338.322 338.033 337.78 337.593 337.491 337.454 337.465 337.502 337.577 337.699 337.832 337.939 338.015 338.08 338.123 338.133 338.102 338.037 337.949 337.849 337.736 337.605 337.464 337.324 337.186 337.047 336.904 336.758 336.61 336.46 336.304 336.136 335.968 335.799 335.605 335.361 335.069 334.742 334.36 333.901 333.352 332.724 332.037 331.309 330.526 329.677 328.813 327.982 327.187 326.403 325.653 324.96 324.345 323.792 323.273 322.759 322.262 321.798 321.316 320.763 320.13 319.445 318.697 317.877 316.962 315.959 314.914 313.873 312.824 311.743 310.689 309.723 308.854 308.053 307.329 306.695 306.175 305.763 305.407 305.058 304.734 304.458 304.16 303.77 303.275 302.713 302.067 301.321 300.435 299.423 298.36 297.324 296.288 295.215 294.213 293.391 292.759 292.262 291.941 291.843 292.008 292.409 292.982 293.661 294.474 295.454 296.492 297.481 298.416 299.353 300.234 301.001 301.632 302.159 302.593 302.941 303.188 303.329 303.41 303.475 303.516 303.508 303.505 303.556 303.656 303.777 303.971 304.286 304.745 305.318 305.992 306.753 307.622 308.604 309.644 310.687 311.73 312.803 313.874 314.913 315.9 316.852 317.795 318.755 319.727 320.699 321.694 322.734 323.841 325 326.179 327.343 328.508 329.69 330.832 331.875 332.811 333.67 334.434 335.084 335.601 335.996 336.3 336.54 336.704 336.777 336.81 336.852 336.895 336.914 336.96 337.083 337.288 337.548 337.888 338.334 338.905 339.585 340.35 341.178 342.085 343.083 344.116 345.132 346.125 347.123 348.103 349.039 349.911 350.735 351.536 352.34 353.14 353.922 354.722 355.575 356.505 357.493 358.505 359.506 360.512 361.541 362.533 363.429 364.221 364.941 365.568 366.081 366.46 366.718 366.885 366.992 367.031 366.986 366.896 366.801 366.705 366.587 366.462 366.343 366.235 366.131 366.028 365.923 365.813 365.702 365.59 365.481 365.374 365.266 365.164 365.073 364.989 364.91 364.848 364.814 364.809 364.826 364.873 364.957 365.084 365.251 365.447 365.664 365.908 366.182 366.468 366.746 367.013 367.28 367.538 367.778 367.995 368.193 368.379 368.56 368.734 368.899 369.061 369.226 369.4 369.579 369.755 369.921 370.076 370.223 370.362 370.492 370.612 370.722 370.824 370.921 371.014 371.101 371.183 371.262
329.148 329.561 329.956 330.312 330.652 331.001 331.369 331.741 332.111 332.47 332.824 333.176 333.509 333.805 334.062 334.29 334.481 334.63 334.731 334.788 334.808 334.797 334.751 334.668 334.56 334.439 334.302 334.144 333.977 333.815 333.655 333.493 333.336 333.196 333.078 332.977 332.883 332.785 332.688 332.598 332.496 332.365 332.199 332.009 331.795 331.558 331.287 330.981 330.67 330.384 330.116 329.852 329.624 329.467 329.387 329.367 329.411 329.522 329.714 329.984 330.302 330.642 331.01 331.418 331.836 332.233 332.605 332.969 333.314 333.632 333.914 334.167 334.402 334.635 334.862 335.074 335.292 335.533 335.801 336.085 336.391 336.722 337.088 337.486 337.897 338.302 338.711 339.133 339.532 339.874 340.159 340.404 340.588 340.689 340.691 340.608 340.459 340.265 340.007 339.678 339.328 339.009 338.721 338.439 338.19 338.005 337.901 337.859 337.862 337.89 337.954 338.062 338.18 338.273 338.338 338.391 338.424 338.424 338.386 338.314 338.22 338.113 337.993 337.855 337.707 337.559 337.414 337.266 337.116 336.965 336.815 336.665 336.512 336.351 336.194 336.04 335.864 335.64 335.37 335.068 334.71 334.273 333.742 333.13 332.456 331.735 330.951 330.097 329.222 328.377 327.564 326.756 325.981 325.267 324.633 324.063 323.531 323.009 322.515 322.059 321.591 321.056 320.449 319.795 319.081 318.292 317.404 316.429 315.408 314.384 313.342 312.262 311.204 310.228 309.344 308.519 307.77 307.111 306.567 306.129 305.748 305.378 305.036 304.746 304.436 304.036 303.536 302.971 302.325 301.58 300.697 299.689 298.632 297.603 296.574 295.509 294.516 293.703 293.082 292.594 292.285 292.199 292.376 292.79 293.376 294.068 294.896 295.89 296.943 297.946 298.894 299.844 300.736 301.509 302.143 302.67 303.101 303.442 303.676 303.801 303.863 303.908 303.926 303.894 303.866 303.895 303.975 304.08 304.257 304.555 304.993 305.545 306.197 306.933 307.774 308.725 309.732 310.744 311.757 312.798 313.842 314.86 315.834 316.779 317.721 318.685 319.67 320.663 321.682 322.747 323.878 325.063 326.267 327.452 328.632 329.825 330.974 332.022 332.958 333.813 334.572 335.218 335.734 336.129 336.434 336.679 336.852 336.937 336.984 337.041 337.101 337.139 337.203 337.342 337.559 337.828 338.173 338.62 339.185 339.853 340.603 341.413 342.3 343.274 344.282 345.275 346.247 347.225 348.186 349.106 349.966 350.78 351.574 352.372 353.166 353.944 354.74 355.587 356.511 357.492 358.496 359.49 360.489 361.511 362.496 363.388 364.177 364.895 365.521 366.035 366.417 366.68 366.853 366.967 367.015 366.98 366.901 366.816 366.731 366.626 366.513 366.406 366.31 366.218 366.126 366.031 365.932 365.83 365.728 365.627 365.527 365.426 365.33 365.245 365.167 365.094 365.037 365.008 365.008 365.03 365.083 365.172 365.307 365.48 365.684 365.909 366.162 366.446 366.742 367.029 367.305 367.582 367.85 368.098 368.32 368.523 368.713 368.895 369.068 369.229 369.385 369.544 369.71 369.879 370.045 370.202 370.348 370.487 370.618 370.742 370.857 370.965 371.065 371.162 371.254 371.342 371.424 371.502
329.905 330.294 330.667 331 331.318 331.644 331.987 332.333 332.676 333.009 333.337 333.663 333.97 334.242 334.479 334.687 334.862 334.995 335.082 335.128 335.138 335.119 335.065 334.975 334.861 334.735 334.592 334.429 334.258 334.094 333.935 333.774 333.622 333.487 333.376 333.286 333.202 333.115 333.029 332.949 332.857 332.733 332.572 332.385 332.172 331.935 331.661 331.352 331.037 330.748 330.48 330.216 329.99 329.836 329.763 329.752 329.805 329.925 330.126 330.405 330.731 331.076 331.445 331.852 332.267 332.659 333.024 333.377 333.711 334.019 334.292 334.535 334.763 334.991 335.217 335.432 335.654 335.902 336.18 336.477 336.797 337.14 337.516 337.924 338.343 338.752 339.16 339.578 339.971 340.305 340.58 340.813 340.985 341.076 341.073 340.987 340.838 340.646 340.394 340.074 339.735 339.424 339.144 338.869 338.627 338.444 338.336 338.287 338.28 338.297 338.348 338.439 338.54 338.618 338.669 338.71 338.73 338.72 338.673 338.594 338.493 338.38 338.253 338.106 337.951 337.795 337.64 337.482 337.322 337.164 337.01 336.857 336.704 336.546 336.397 336.255 336.094 335.886 335.636 335.356 335.022 334.605 334.092 333.498 332.838 332.126 331.344 330.487 329.604 328.749 327.919 327.091 326.293 325.56 324.908 324.321 323.775 323.246 322.753 322.305 321.849 321.333 320.751 320.13 319.451 318.694 317.837 316.893 315.9 314.896 313.866 312.791 311.732 310.749 309.851 309.005 308.23 307.545 306.976 306.51 306.102 305.708 305.347 305.038 304.714 304.304 303.797 303.23 302.585 301.843 300.966 299.967 298.92 297.902 296.885 295.833 294.854 294.054 293.446 292.973 292.677 292.602 292.79 293.214 293.809 294.51 295.346 296.347 297.407 298.416 299.369 300.323 301.219 301.994 302.626 303.15 303.575 303.908 304.132 304.243 304.289 304.318 304.319 304.269 304.223 304.235 304.303 304.397 304.563 304.848 305.271 305.806 306.439 307.153 307.967 308.887 309.863 310.844 311.825 312.834 313.847 314.842 315.8 316.735 317.672 318.638 319.632 320.642 321.682 322.767 323.919 325.128 326.354 327.556 328.748 329.95 331.104 332.154 333.088 333.938 334.69 335.332 335.847 336.242 336.55 336.801 336.984 337.084 337.147 337.221 337.3 337.359 337.444 337.599 337.828 338.106 338.457 338.903 339.46 340.116 340.849 341.64 342.504 343.452 344.434 345.402 346.351 347.309 348.252 349.156 350.004 350.81 351.597 352.39 353.179 353.955 354.748 355.592 356.51 357.484 358.481 359.468 360.46 361.474 362.452 363.338 364.123 364.837 365.462 365.975 366.359 366.625 366.803 366.924 366.979 366.954 366.885 366.812 366.739 366.646 366.546 366.451 366.367 366.287 366.208 366.125 366.036 365.945 365.853 365.762 365.67 365.577 365.489 365.411 365.341 365.274 365.224 365.203 365.21 365.239 365.298 365.396 365.538 365.719 365.932 366.166 366.427 366.722 367.027 367.324 367.61 367.897 368.173 368.428 368.656 368.863 369.056 369.238 369.409 369.565 369.715 369.867 370.024 370.183 370.339 370.486 370.624 370.754 370.878 370.995 371.106 371.211 371.31 371.405 371.497 371.584 371.667 371.744
330.654 331.022 331.372 331.685 331.982 332.285 332.603 332.924 333.241 333.549 333.851 334.152 334.434 334.685 334.901 335.091 335.249 335.367 335.442 335.477 335.478 335.449 335.388 335.291 335.17 335.037 334.889 334.72 334.545 334.378 334.219 334.06 333.911 333.781 333.679 333.597 333.524 333.447 333.37 333.3 333.217 333.1 332.943 332.757 332.545 332.307 332.031 331.717 331.398 331.106 330.837 330.573 330.348 330.198 330.131 330.128 330.19 330.318 330.527 330.813 331.147 331.496 331.866 332.272 332.683 333.071 333.428 333.772 334.096 334.395 334.66 334.895 335.117 335.343 335.57 335.789 336.018 336.275 336.564 336.875 337.209 337.565 337.952 338.37 338.797 339.21 339.618 340.031 340.417 340.744 341.009 341.231 341.392 341.475 341.468 341.38 341.232 341.043 340.797 340.488 340.16 339.859 339.587 339.319 339.081 338.899 338.787 338.73 338.712 338.716 338.751 338.824 338.907 338.968 339.004 339.03 339.037 339.016 338.959 338.873 338.766 338.645 338.51 338.356 338.192 338.027 337.863 337.694 337.524 337.358 337.197 337.039 336.883 336.726 336.581 336.448 336.297 336.102 335.868 335.608 335.294 334.895 334.399 333.822 333.177 332.475 331.698 330.841 329.955 329.092 328.25 327.404 326.588 325.838 325.171 324.568 324.009 323.475 322.982 322.541 322.097 321.598 321.04 320.45 319.805 319.081 318.256 317.344 316.38 315.398 314.382 313.315 312.258 311.27 310.359 309.493 308.694 307.985 307.39 306.895 306.459 306.04 305.657 305.33 304.99 304.569 304.056 303.487 302.844 302.107 301.238 300.252 299.22 298.217 297.215 296.18 295.218 294.435 293.843 293.384 293.103 293.04 293.238 293.669 294.269 294.973 295.812 296.815 297.874 298.882 299.835 300.788 301.682 302.454 303.082 303.601 304.019 304.344 304.559 304.659 304.693 304.711 304.7 304.638 304.579 304.581 304.641 304.729 304.888 305.164 305.575 306.096 306.712 307.406 308.194 309.085 310.029 310.978 311.928 312.903 313.886 314.855 315.796 316.718 317.648 318.613 319.614 320.637 321.695 322.797 323.967 325.197 326.442 327.659 328.86 330.068 331.225 332.275 333.206 334.049 334.794 335.432 335.946 336.342 336.653 336.911 337.106 337.221 337.303 337.395 337.494 337.576 337.682 337.854 338.094 338.381 338.737 339.182 339.731 340.372 341.086 341.857 342.698 343.618 344.572 345.515 346.442 347.378 348.302 349.19 350.026 350.825 351.607 352.394 353.181 353.955 354.747 355.588 356.503 357.471 358.462 359.443 360.428 361.435 362.406 363.285 364.065 364.775 365.396 365.909 366.293 366.562 366.745 366.872 366.934 366.918 366.86 366.798 366.737 366.657 366.57 366.488 366.418 366.351 366.284 366.213 366.137 366.057 365.976 365.895 365.814 365.73 365.65 365.581 365.52 365.462 365.42 365.407 365.422 365.459 365.526 365.631 365.781 365.971 366.192 366.434 366.705 367.008 367.323 367.628 367.923 368.218 368.502 368.763 368.996 369.207 369.401 369.583 369.751 369.903 370.046 370.191 370.34 370.489 370.635 370.773 370.902 371.024 371.14 371.252 371.359 371.461 371.559 371.652 371.743 371.83 371.912 371.988
331.391 331.738 332.068 332.361 332.637 332.919 333.215 333.512 333.805 334.089 334.369 334.647 334.908 335.138 335.337 335.511 335.654 335.759 335.822 335.848 335.84 335.803 335.733 335.628 335.5 335.361 335.206 335.03 334.849 334.678 334.518 334.36 334.213 334.087 333.99 333.916 333.852 333.783 333.714 333.652 333.575 333.464 333.309 333.123 332.91 332.671 332.391 332.073 331.749 331.455 331.184 330.92 330.697 330.55 330.488 330.493 330.563 330.699 330.914 331.208 331.548 331.901 332.271 332.675 333.084 333.467 333.818 334.153 334.469 334.761 335.02 335.25 335.468 335.694 335.923 336.149 336.386 336.652 336.953 337.28 337.629 337.998 338.396 338.825 339.26 339.678 340.086 340.496 340.876 341.196 341.453 341.664 341.815 341.892 341.881 341.792 341.645 341.459 341.22 340.921 340.603 340.31 340.044 339.781 339.547 339.364 339.245 339.178 339.147 339.137 339.156 339.21 339.273 339.316 339.336 339.347 339.341 339.307 339.241 339.146 339.032 338.904 338.761 338.599 338.427 338.254 338.08 337.901 337.721 337.546 337.378 337.214 337.053 336.895 336.751 336.622 336.478 336.292 336.069 335.824 335.526 335.143 334.662 334.101 333.469 332.778 332.007 331.153 330.268 329.402 328.553 327.695 326.866 326.103 325.424 324.809 324.239 323.7 323.209 322.773 322.339 321.856 321.32 320.759 320.145 319.451 318.655 317.774 316.839 315.879 314.877 313.818 312.764 311.773 310.851 309.967 309.146 308.414 307.795 307.272 306.808 306.366 305.962 305.616 305.261 304.829 304.311 303.741 303.101 302.371 301.513 300.541 299.527 298.541 297.558 296.543 295.601 294.836 294.261 293.819 293.552 293.501 293.705 294.14 294.742 295.447 296.283 297.282 298.336 299.339 300.286 301.234 302.122 302.888 303.51 304.023 304.435 304.754 304.961 305.054 305.081 305.091 305.074 305.004 304.938 304.934 304.989 305.075 305.231 305.499 305.9 306.409 307.01 307.685 308.449 309.31 310.222 311.141 312.058 313 313.951 314.895 315.817 316.725 317.647 318.608 319.614 320.649 321.722 322.839 324.024 325.27 326.532 327.761 328.969 330.18 331.338 332.387 333.314 334.15 334.888 335.522 336.035 336.432 336.747 337.013 337.22 337.353 337.454 337.566 337.686 337.79 337.917 338.106 338.358 338.653 339.012 339.455 339.995 340.621 341.316 342.065 342.882 343.774 344.699 345.616 346.52 347.434 348.338 349.211 350.036 350.827 351.603 352.387 353.171 353.945 354.737 355.578 356.489 357.454 358.441 359.417 360.397 361.396 362.361 363.235 364.009 364.715 365.333 365.844 366.229 366.5 366.687 366.819 366.889 366.883 366.836 366.785 366.736 366.669 366.596 366.528 366.471 366.418 366.364 366.307 366.243 366.175 366.106 366.037 365.967 365.893 365.823 365.764 365.712 365.664 365.632 365.627 365.651 365.696 365.771 365.884 366.042 366.239 366.467 366.716 366.994 367.305 367.627 367.939 368.24 368.542 368.832 369.098 369.334 369.547 369.742 369.923 370.089 370.236 370.374 370.511 370.653 370.794 370.93 371.06 371.182 371.297 371.407 371.513 371.617 371.716 371.812 371.905 371.994 372.08 372.161 372.236
332.117 332.445 332.755 333.029 333.286 333.547 333.821 334.096 334.367 334.629 334.888 335.145 335.387 335.599 335.782 335.943 336.073 336.167 336.22 336.236 336.22 336.174 336.096 335.983 335.847 335.7 335.537 335.354 335.166 334.99 334.827 334.669 334.523 334.4 334.307 334.241 334.184 334.121 334.058 334.003 333.932 333.824 333.67 333.484 333.268 333.026 332.743 332.42 332.091 331.794 331.522 331.258 331.036 330.892 330.835 330.846 330.924 331.066 331.288 331.587 331.932 332.288 332.658 333.061 333.466 333.845 334.191 334.52 334.829 335.116 335.371 335.598 335.815 336.042 336.277 336.51 336.758 337.036 337.35 337.693 338.058 338.441 338.851 339.291 339.734 340.157 340.566 340.972 341.347 341.661 341.912 342.114 342.256 342.327 342.314 342.225 342.08 341.898 341.666 341.376 341.068 340.782 340.521 340.262 340.029 339.843 339.717 339.638 339.592 339.565 339.566 339.599 339.641 339.664 339.667 339.662 339.641 339.594 339.517 339.414 339.292 339.157 339.006 338.836 338.657 338.475 338.292 338.102 337.912 337.728 337.552 337.38 337.212 337.049 336.903 336.773 336.631 336.449 336.234 335.999 335.712 335.341 334.874 334.327 333.71 333.031 332.269 331.422 330.541 329.677 328.825 327.961 327.124 326.353 325.666 325.04 324.463 323.919 323.43 322.998 322.574 322.104 321.589 321.054 320.47 319.804 319.037 318.187 317.28 316.342 315.356 314.308 313.258 312.266 311.335 310.435 309.593 308.839 308.195 307.645 307.154 306.686 306.262 305.897 305.526 305.084 304.561 303.992 303.357 302.635 301.791 300.838 299.846 298.882 297.921 296.931 296.012 295.269 294.713 294.29 294.038 293.997 294.207 294.643 295.242 295.942 296.771 297.758 298.8 299.79 300.726 301.662 302.539 303.294 303.908 304.413 304.819 305.132 305.335 305.423 305.447 305.455 305.436 305.365 305.299 305.295 305.35 305.437 305.593 305.858 306.252 306.751 307.339 307.996 308.737 309.569 310.45 311.337 312.223 313.13 314.048 314.966 315.867 316.759 317.67 318.626 319.634 320.678 321.762 322.891 324.088 325.348 326.623 327.861 329.074 330.285 331.442 332.488 333.41 334.238 334.968 335.597 336.11 336.509 336.829 337.103 337.325 337.477 337.6 337.733 337.874 338.002 338.15 338.356 338.619 338.922 339.284 339.724 340.254 340.863 341.537 342.264 343.055 343.918 344.813 345.703 346.583 347.475 348.359 349.215 350.029 350.813 351.585 352.366 353.148 353.923 354.717 355.558 356.469 357.432 358.416 359.389 360.364 361.358 362.317 363.185 363.955 364.655 365.269 365.778 366.163 366.435 366.625 366.763 366.84 366.843 366.806 366.767 366.73 366.677 366.618 366.564 366.521 366.482 366.442 366.399 366.349 366.295 366.238 366.182 366.124 366.062 366.004 365.956 365.916 365.879 365.857 365.863 365.896 365.95 366.033 366.154 366.319 366.524 366.758 367.014 367.298 367.615 367.943 368.26 368.566 368.872 369.166 369.435 369.672 369.886 370.081 370.261 370.423 370.566 370.698 370.829 370.964 371.096 371.225 371.347 371.462 371.571 371.676 371.778 371.879 371.977 372.072 372.163 372.25 372.336 372.415 372.488
332.834 333.143 333.435 333.69 333.929 334.171 334.425 334.678 334.927 335.169 335.409 335.647 335.871 336.067 336.236 336.385 336.504 336.588 336.631 336.639 336.615 336.561 336.474 336.352 336.208 336.053 335.881 335.689 335.493 335.312 335.146 334.986 334.841 334.719 334.631 334.57 334.519 334.462 334.404 334.354 334.287 334.181 334.028 333.839 333.62 333.375 333.088 332.759 332.425 332.125 331.851 331.587 331.367 331.224 331.172 331.189 331.273 331.422 331.648 331.953 332.301 332.659 333.03 333.43 333.833 334.208 334.55 334.873 335.176 335.459 335.713 335.939 336.157 336.388 336.63 336.873 337.133 337.423 337.753 338.112 338.494 338.892 339.315 339.765 340.218 340.646 341.056 341.459 341.829 342.138 342.382 342.576 342.711 342.777 342.763 342.676 342.534 342.356 342.131 341.85 341.552 341.274 341.016 340.76 340.527 340.337 340.201 340.108 340.046 340.001 339.982 339.993 340.012 340.015 339.999 339.977 339.94 339.879 339.791 339.679 339.549 339.405 339.246 339.069 338.882 338.692 338.499 338.299 338.099 337.904 337.718 337.536 337.36 337.189 337.038 336.903 336.758 336.576 336.364 336.136 335.857 335.496 335.04 334.507 333.905 333.238 332.488 331.652 330.779 329.921 329.071 328.205 327.363 326.588 325.896 325.263 324.679 324.133 323.644 323.217 322.8 322.343 321.846 321.336 320.779 320.142 319.403 318.583 317.705 316.791 315.821 314.786 313.743 312.751 311.813 310.898 310.038 309.262 308.595 308.017 307.497 307.005 306.559 306.174 305.787 305.334 304.807 304.239 303.611 302.9 302.072 301.142 300.175 299.237 298.303 297.34 296.449 295.73 295.196 294.792 294.556 294.526 294.739 295.173 295.765 296.456 297.271 298.241 299.264 300.236 301.155 302.073 302.933 303.675 304.277 304.774 305.172 305.48 305.68 305.768 305.793 305.803 305.787 305.721 305.661 305.661 305.722 305.814 305.974 306.239 306.629 307.121 307.697 308.338 309.057 309.861 310.711 311.567 312.42 313.292 314.177 315.066 315.945 316.82 317.718 318.666 319.673 320.722 321.815 322.953 324.159 325.43 326.714 327.96 329.174 330.383 331.536 332.578 333.494 334.312 335.035 335.66 336.172 336.573 336.899 337.183 337.421 337.593 337.739 337.895 338.058 338.21 338.381 338.604 338.878 339.188 339.552 339.988 340.507 341.098 341.75 342.453 343.218 344.05 344.915 345.776 346.632 347.501 348.365 349.205 350.008 350.785 351.553 352.331 353.113 353.89 354.688 355.531 356.442 357.405 358.389 359.359 360.331 361.32 362.272 363.135 363.899 364.594 365.203 365.709 366.093 366.366 366.559 366.701 366.785 366.797 366.771 366.743 366.719 366.68 366.635 366.596 366.568 366.543 366.519 366.49 366.454 366.414 366.372 366.33 366.285 366.236 366.191 366.156 366.128 366.103 366.094 366.111 366.155 366.219 366.311 366.44 366.613 366.823 367.064 367.326 367.615 367.936 368.268 368.589 368.899 369.208 369.504 369.775 370.013 370.227 370.42 370.598 370.757 370.894 371.021 371.146 371.274 371.399 371.519 371.635 371.744 371.848 371.949 372.048 372.146 372.242 372.336 372.425 372.512 372.595 372.673 372.742
333.539 333.832 334.106 334.344 334.566 334.79 335.025 335.259 335.489 335.713 335.935 336.157 336.365 336.548 336.705 336.843 336.953 337.027 337.062 337.062 337.03 336.968 336.872 336.742 336.588 336.423 336.243 336.042 335.837 335.65 335.479 335.317 335.172 335.05 334.964 334.907 334.861 334.807 334.753 334.705 334.641 334.536 334.38 334.189 333.966 333.716 333.424 333.09 332.751 332.447 332.173 331.909 331.69 331.55 331.501 331.524 331.615 331.768 331.999 332.307 332.659 333.018 333.388 333.787 334.186 334.559 334.897 335.215 335.514 335.795 336.048 336.275 336.496 336.732 336.982 337.237 337.509 337.814 338.159 338.536 338.935 339.348 339.784 340.245 340.707 341.141 341.552 341.954 342.32 342.624 342.863 343.05 343.178 343.24 343.225 343.139 343.001 342.827 342.609 342.338 342.048 341.775 341.521 341.267 341.032 340.837 340.691 340.583 340.503 340.44 340.4 340.388 340.384 340.365 340.33 340.29 340.237 340.162 340.061 339.94 339.801 339.649 339.481 339.297 339.102 338.904 338.701 338.491 338.28 338.076 337.879 337.686 337.5 337.32 337.161 337.018 336.868 336.682 336.47 336.244 335.97 335.615 335.169 334.65 334.061 333.408 332.67 331.847 330.987 330.137 329.292 328.429 327.588 326.813 326.118 325.48 324.891 324.343 323.856 323.431 323.02 322.574 322.094 321.606 321.074 320.462 319.75 318.959 318.109 317.217 316.264 315.243 314.209 313.219 312.276 311.348 310.471 309.676 308.987 308.382 307.836 307.32 306.853 306.449 306.045 305.582 305.051 304.485 303.863 303.164 302.354 301.447 300.507 299.596 298.69 297.757 296.895 296.202 295.689 295.305 295.085 295.064 295.28 295.709 296.293 296.971 297.77 298.719 299.719 300.669 301.568 302.466 303.307 304.033 304.624 305.111 305.503 305.808 306.007 306.097 306.127 306.142 306.134 306.077 306.026 306.035 306.103 306.204 306.37 306.637 307.024 307.51 308.076 308.702 309.399 310.175 310.995 311.82 312.641 313.478 314.329 315.189 316.046 316.903 317.787 318.726 319.73 320.783 321.883 323.027 324.239 325.518 326.81 328.059 329.273 330.479 331.626 332.662 333.571 334.38 335.094 335.715 336.227 336.631 336.963 337.258 337.512 337.706 337.874 338.053 338.24 338.415 338.609 338.848 339.133 339.45 339.815 340.247 340.754 341.327 341.956 342.634 343.372 344.174 345.007 345.84 346.671 347.517 348.36 349.184 349.976 350.746 351.511 352.288 353.07 353.85 354.652 355.498 356.41 357.375 358.359 359.329 360.297 361.281 362.229 363.086 363.845 364.534 365.138 365.641 366.024 366.298 366.493 366.639 366.731 366.752 366.737 366.721 366.711 366.686 366.657 366.634 366.62 366.611 366.602 366.589 366.568 366.543 366.516 366.488 366.457 366.422 366.39 366.368 366.353 366.342 366.345 366.374 366.428 366.501 366.602 366.739 366.918 367.135 367.38 367.646 367.939 368.264 368.599 368.922 369.234 369.545 369.842 370.113 370.351 370.564 370.756 370.931 371.086 371.22 371.341 371.461 371.583 371.701 371.815 371.924 372.029 372.129 372.226 372.321 372.417 372.512 372.604 372.691 372.775 372.857 372.932 372.998
334.231 334.508 334.767 334.99 335.196 335.405 335.624 335.841 336.055 336.263 336.471 336.68 336.875 337.046 337.193 337.322 337.425 337.491 337.518 337.51 337.471 337.401 337.296 337.156 336.992 336.818 336.628 336.416 336.203 336.008 335.833 335.667 335.519 335.397 335.311 335.255 335.211 335.159 335.105 335.058 334.993 334.886 334.727 334.53 334.302 334.047 333.751 333.411 333.069 332.762 332.487 332.224 332.007 331.87 331.826 331.854 331.95 332.108 332.342 332.654 333.007 333.367 333.737 334.133 334.529 334.899 335.234 335.549 335.845 336.125 336.379 336.608 336.833 337.075 337.334 337.601 337.887 338.206 338.566 338.961 339.378 339.806 340.254 340.728 341.199 341.639 342.053 342.454 342.817 343.118 343.352 343.533 343.655 343.713 343.698 343.613 343.477 343.307 343.094 342.83 342.547 342.279 342.027 341.772 341.535 341.334 341.177 341.054 340.957 340.875 340.816 340.782 340.755 340.715 340.661 340.603 340.533 340.443 340.329 340.197 340.048 339.887 339.711 339.518 339.315 339.109 338.898 338.678 338.457 338.243 338.036 337.833 337.636 337.447 337.278 337.126 336.967 336.776 336.56 336.333 336.06 335.709 335.271 334.762 334.186 333.546 332.821 332.013 331.167 330.33 329.494 328.637 327.801 327.029 326.334 325.694 325.103 324.554 324.068 323.646 323.239 322.801 322.335 321.866 321.354 320.763 320.075 319.31 318.485 317.615 316.678 315.67 314.646 313.66 312.713 311.776 310.885 310.074 309.365 308.737 308.166 307.629 307.143 306.72 306.301 305.829 305.294 304.729 304.112 303.424 302.631 301.747 300.833 299.949 299.07 298.167 297.334 296.666 296.174 295.809 295.604 295.592 295.808 296.232 296.805 297.469 298.251 299.178 300.154 301.082 301.96 302.839 303.661 304.372 304.952 305.432 305.819 306.123 306.323 306.419 306.456 306.48 306.481 306.436 306.397 306.416 306.494 306.604 306.777 307.047 307.431 307.911 308.467 309.078 309.754 310.503 311.292 312.087 312.876 313.68 314.498 315.331 316.166 317.004 317.874 318.804 319.805 320.86 321.965 323.114 324.33 325.615 326.911 328.162 329.374 330.575 331.716 332.745 333.646 334.446 335.152 335.768 336.281 336.688 337.027 337.333 337.602 337.817 338.01 338.211 338.419 338.618 338.832 339.087 339.382 339.705 340.071 340.498 340.993 341.548 342.155 342.808 343.52 344.291 345.093 345.898 346.704 347.527 348.35 349.158 349.939 350.702 351.464 352.239 353.022 353.806 354.612 355.462 356.377 357.344 358.329 359.299 360.265 361.245 362.188 363.041 363.795 364.479 365.078 365.577 365.96 366.235 366.433 366.585 366.684 366.715 366.713 366.71 366.713 366.705 366.692 366.685 366.688 366.695 366.703 366.705 366.7 366.691 366.678 366.665 366.648 366.626 366.607 366.598 366.596 366.597 366.613 366.652 366.716 366.798 366.906 367.049 367.234 367.454 367.703 367.972 368.267 368.593 368.929 369.253 369.565 369.877 370.174 370.445 370.682 370.894 371.085 371.258 371.411 371.541 371.658 371.774 371.891 372.004 372.112 372.216 372.317 372.413 372.506 372.598 372.691 372.784 372.874 372.959 373.04 373.118 373.19 373.252
334.908 335.172 335.416 335.625 335.818 336.014 336.219 336.422 336.623 336.819 337.016 337.214 337.4 337.563 337.702 337.825 337.922 337.982 338.002 337.988 337.941 337.863 337.749 337.598 337.424 337.24 337.04 336.818 336.594 336.39 336.209 336.038 335.886 335.76 335.672 335.615 335.57 335.517 335.46 335.409 335.341 335.229 335.064 334.861 334.625 334.365 334.063 333.718 333.372 333.063 332.788 332.527 332.313 332.18 332.14 332.174 332.275 332.437 332.674 332.987 333.341 333.702 334.07 334.465 334.859 335.227 335.56 335.872 336.168 336.448 336.705 336.937 337.167 337.417 337.688 337.967 338.267 338.601 338.978 339.39 339.824 340.268 340.729 341.215 341.696 342.144 342.562 342.962 343.324 343.623 343.854 344.03 344.147 344.202 344.186 344.102 343.968 343.8 343.591 343.333 343.055 342.79 342.537 342.282 342.04 341.831 341.663 341.525 341.409 341.309 341.229 341.173 341.123 341.063 340.989 340.912 340.825 340.719 340.592 340.448 340.288 340.117 339.931 339.73 339.52 339.306 339.085 338.857 338.627 338.404 338.187 337.973 337.765 337.565 337.384 337.22 337.049 336.849 336.627 336.394 336.118 335.769 335.335 334.836 334.271 333.644 332.934 332.144 331.316 330.493 329.671 328.826 328 327.235 326.544 325.905 325.314 324.766 324.282 323.86 323.456 323.024 322.569 322.114 321.619 321.046 320.378 319.637 318.835 317.984 317.063 316.069 315.055 314.074 313.126 312.182 311.28 310.456 309.73 309.081 308.488 307.93 307.427 306.986 306.553 306.071 305.533 304.969 304.358 303.681 302.905 302.045 301.157 300.299 299.448 298.576 297.774 297.131 296.661 296.315 296.123 296.118 296.333 296.749 297.31 297.959 298.721 299.623 300.572 301.477 302.333 303.189 303.992 304.688 305.258 305.731 306.116 306.42 306.625 306.729 306.777 306.812 306.827 306.797 306.774 306.807 306.896 307.017 307.199 307.472 307.855 308.33 308.876 309.472 310.126 310.849 311.608 312.372 313.131 313.901 314.687 315.492 316.306 317.126 317.981 318.901 319.897 320.953 322.061 323.212 324.431 325.719 327.018 328.269 329.476 330.671 331.803 332.825 333.718 334.509 335.206 335.819 336.332 336.744 337.089 337.406 337.692 337.929 338.144 338.367 338.597 338.818 339.053 339.323 339.627 339.955 340.321 340.742 341.226 341.761 342.346 342.975 343.659 344.4 345.171 345.948 346.729 347.528 348.331 349.123 349.893 350.65 351.409 352.182 352.967 353.755 354.567 355.421 356.34 357.311 358.299 359.269 360.234 361.211 362.149 362.998 363.748 364.426 365.021 365.518 365.901 366.177 366.378 366.535 366.643 366.685 366.695 366.706 366.725 366.733 366.738 366.748 366.768 366.793 366.818 366.837 366.848 366.855 366.858 366.859 366.857 366.849 366.843 366.847 366.858 366.872 366.899 366.949 367.021 367.111 367.225 367.374 367.562 367.785 368.034 368.304 368.599 368.925 369.259 369.582 369.893 370.204 370.5 370.769 371.005 371.216 371.405 371.576 371.727 371.855 371.97 372.083 372.196 372.305 372.409 372.51 372.608 372.701 372.791 372.881 372.971 373.061 373.148 373.23 373.308 373.382 373.45 373.507
335.573 335.823 336.055 336.252 336.433 336.618 336.811 337.003 337.193 337.38 337.568 337.759 337.938 338.095 338.229 338.348 338.44 338.495 338.509 338.489 338.435 338.35 338.226 338.065 337.88 337.685 337.474 337.24 337.006 336.792 336.603 336.426 336.269 336.138 336.046 335.986 335.938 335.88 335.818 335.761 335.686 335.568 335.395 335.183 334.939 334.671 334.364 334.015 333.665 333.354 333.08 332.821 332.611 332.482 332.446 332.485 332.591 332.757 332.995 333.309 333.664 334.024 334.391 334.783 335.175 335.542 335.874 336.186 336.481 336.764 337.024 337.262 337.5 337.759 338.041 338.334 338.649 338.998 339.392 339.822 340.274 340.733 341.209 341.707 342.199 342.655 343.076 343.478 343.839 344.137 344.366 344.538 344.651 344.704 344.688 344.604 344.471 344.306 344.1 343.846 343.572 343.308 343.054 342.795 342.548 342.33 342.149 341.995 341.862 341.742 341.642 341.564 341.491 341.409 341.316 341.22 341.115 340.992 340.851 340.694 340.523 340.341 340.146 339.936 339.718 339.495 339.267 339.03 338.792 338.559 338.332 338.108 337.888 337.676 337.481 337.302 337.116 336.904 336.671 336.429 336.147 335.795 335.365 334.873 334.319 333.704 333.011 332.24 331.433 330.63 329.824 328.996 328.184 327.431 326.747 326.112 325.522 324.977 324.494 324.072 323.67 323.242 322.795 322.351 321.869 321.311 320.661 319.941 319.16 318.327 317.422 316.443 315.44 314.466 313.518 312.57 311.659 310.824 310.084 309.415 308.802 308.226 307.706 307.248 306.801 306.31 305.769 305.206 304.602 303.936 303.177 302.34 301.479 300.649 299.828 298.988 298.216 297.6 297.151 296.823 296.645 296.646 296.859 297.265 297.811 298.442 299.181 300.056 300.977 301.854 302.686 303.52 304.302 304.982 305.542 306.01 306.393 306.699 306.911 307.026 307.088 307.139 307.17 307.16 307.155 307.205 307.309 307.443 307.635 307.913 308.296 308.766 309.303 309.884 310.518 311.214 311.943 312.677 313.405 314.143 314.897 315.675 316.466 317.267 318.108 319.016 320.007 321.062 322.171 323.323 324.542 325.83 327.129 328.378 329.579 330.765 331.888 332.901 333.785 334.566 335.256 335.865 336.379 336.795 337.149 337.477 337.78 338.038 338.276 338.521 338.772 339.016 339.27 339.555 339.868 340.199 340.565 340.98 341.451 341.967 342.529 343.133 343.791 344.5 345.241 345.989 346.746 347.522 348.304 349.08 349.839 350.59 351.345 352.118 352.904 353.698 354.516 355.376 356.3 357.275 358.267 359.239 360.204 361.178 362.113 362.958 363.704 364.377 364.967 365.461 365.844 366.121 366.326 366.488 366.605 366.659 366.682 366.708 366.743 366.768 366.792 366.821 366.858 366.902 366.944 366.981 367.009 367.032 367.052 367.069 367.081 367.087 367.095 367.112 367.136 367.162 367.202 367.262 367.343 367.439 367.559 367.711 367.902 368.125 368.375 368.644 368.938 369.26 369.592 369.912 370.22 370.528 370.822 371.088 371.322 371.531 371.719 371.889 372.038 372.164 372.277 372.388 372.5 372.606 372.708 372.806 372.901 372.992 373.08 373.167 373.255 373.342 373.426 373.504 373.578 373.647 373.71 373.763
336.227 336.466 336.687 336.873 337.044 337.219 337.404 337.587 337.768 337.947 338.129 338.314 338.489 338.641 338.771 338.886 338.975 339.025 339.034 339.008 338.947 338.853 338.72 338.548 338.352 338.145 337.922 337.677 337.431 337.208 337.011 336.827 336.664 336.527 336.429 336.365 336.312 336.249 336.18 336.116 336.033 335.906 335.725 335.503 335.25 334.975 334.662 334.309 333.956 333.645 333.372 333.117 332.911 332.786 332.754 332.797 332.908 333.076 333.316 333.629 333.983 334.341 334.707 335.096 335.486 335.85 336.182 336.493 336.79 337.075 337.34 337.584 337.83 338.099 338.393 338.699 339.03 339.396 339.806 340.254 340.723 341.199 341.688 342.199 342.702 343.166 343.592 343.996 344.357 344.654 344.881 345.05 345.16 345.211 345.194 345.111 344.979 344.815 344.611 344.36 344.089 343.826 343.569 343.307 343.054 342.827 342.634 342.464 342.314 342.176 342.055 341.955 341.861 341.758 341.645 341.53 341.406 341.267 341.111 340.94 340.757 340.564 340.358 340.14 339.913 339.683 339.446 339.202 338.956 338.714 338.477 338.241 338.01 337.785 337.575 337.379 337.177 336.95 336.705 336.451 336.16 335.804 335.375 334.888 334.344 333.742 333.065 332.316 331.531 330.749 329.962 329.153 328.359 327.619 326.945 326.315 325.729 325.186 324.705 324.283 323.879 323.454 323.013 322.576 322.105 321.559 320.924 320.222 319.46 318.645 317.756 316.791 315.801 314.835 313.89 312.94 312.024 311.181 310.428 309.743 309.112 308.519 307.984 307.511 307.05 306.551 306.006 305.444 304.845 304.188 303.446 302.631 301.796 300.993 300.199 299.39 298.649 298.059 297.63 297.319 297.153 297.16 297.37 297.766 298.296 298.908 299.626 300.472 301.364 302.215 303.023 303.833 304.596 305.261 305.812 306.275 306.658 306.968 307.189 307.318 307.396 307.464 307.514 307.525 307.541 307.609 307.728 307.876 308.078 308.362 308.745 309.21 309.738 310.305 310.919 311.589 312.29 312.996 313.694 314.4 315.124 315.876 316.645 317.429 318.254 319.151 320.134 321.187 322.295 323.446 324.663 325.95 327.246 328.491 329.684 330.86 331.973 332.976 333.85 334.622 335.304 335.909 336.425 336.845 337.207 337.547 337.867 338.145 338.406 338.673 338.945 339.209 339.483 339.781 340.102 340.437 340.802 341.212 341.669 342.167 342.706 343.286 343.917 344.596 345.305 346.026 346.758 347.51 348.272 349.032 349.78 350.525 351.277 352.049 352.838 353.637 354.463 355.329 356.258 357.239 358.235 359.21 360.175 361.147 362.079 362.921 363.662 364.331 364.916 365.408 365.791 366.07 366.278 366.447 366.573 366.639 366.677 366.718 366.77 366.815 366.858 366.906 366.962 367.024 367.085 367.14 367.185 367.225 367.26 367.292 367.319 367.339 367.36 367.39 367.426 367.465 367.516 367.586 367.674 367.776 367.901 368.057 368.249 368.472 368.721 368.987 369.279 369.598 369.926 370.242 370.547 370.851 371.142 371.406 371.638 371.845 372.031 372.2 372.348 372.473 372.585 372.695 372.805 372.909 373.009 373.105 373.198 373.286 373.372 373.456 373.54 373.624 373.704 373.778 373.846 373.91 373.967 374.014
336.874 337.102 337.313 337.491 337.655 337.822 337.999 338.175 338.35 338.523 338.7 338.88 339.051 339.199 339.325 339.437 339.522 339.568 339.571 339.537 339.469 339.367 339.223 339.04 338.831 338.612 338.378 338.121 337.864 337.632 337.426 337.236 337.067 336.924 336.821 336.751 336.693 336.624 336.548 336.475 336.384 336.248 336.058 335.827 335.566 335.284 334.966 334.61 334.255 333.944 333.673 333.422 333.222 333.101 333.073 333.12 333.234 333.404 333.643 333.955 334.306 334.661 335.024 335.41 335.795 336.158 336.488 336.799 337.096 337.384 337.654 337.904 338.158 338.436 338.742 339.062 339.408 339.789 340.215 340.681 341.168 341.658 342.162 342.685 343.199 343.671 344.103 344.51 344.871 345.168 345.394 345.56 345.667 345.715 345.697 345.614 345.482 345.318 345.116 344.868 344.599 344.335 344.077 343.811 343.552 343.318 343.113 342.93 342.763 342.608 342.47 342.35 342.235 342.112 341.981 341.847 341.705 341.549 341.377 341.192 340.996 340.791 340.574 340.347 340.111 339.872 339.627 339.375 339.122 338.871 338.624 338.378 338.135 337.897 337.673 337.46 337.241 336.999 336.74 336.472 336.171 335.809 335.38 334.898 334.361 333.771 333.11 332.381 331.619 330.858 330.092 329.302 328.527 327.802 327.138 326.515 325.934 325.394 324.913 324.49 324.085 323.661 323.223 322.792 322.327 321.79 321.168 320.482 319.738 318.938 318.064 317.114 316.137 315.181 314.24 313.291 312.373 311.525 310.763 310.066 309.42 308.814 308.265 307.778 307.305 306.797 306.248 305.685 305.089 304.44 303.712 302.916 302.103 301.323 300.554 299.774 299.061 298.493 298.083 297.789 297.634 297.646 297.853 298.239 298.755 299.35 300.046 300.867 301.731 302.558 303.344 304.134 304.878 305.531 306.074 306.535 306.92 307.236 307.467 307.611 307.706 307.792 307.861 307.893 307.93 308.016 308.15 308.311 308.524 308.813 309.195 309.655 310.173 310.727 311.322 311.968 312.641 313.32 313.992 314.669 315.365 316.093 316.842 317.608 318.42 319.306 320.281 321.33 322.436 323.583 324.795 326.079 327.371 328.608 329.793 330.958 332.058 333.051 333.916 334.678 335.353 335.954 336.471 336.897 337.267 337.618 337.953 338.252 338.534 338.821 339.112 339.397 339.689 340 340.329 340.668 341.032 341.436 341.881 342.361 342.878 343.435 344.039 344.689 345.368 346.062 346.769 347.498 348.239 348.983 349.72 350.458 351.208 351.98 352.771 353.576 354.409 355.282 356.217 357.203 358.205 359.183 360.148 361.119 362.047 362.886 363.624 364.287 364.869 365.359 365.742 366.024 366.236 366.412 366.549 366.629 366.682 366.74 366.81 366.874 366.938 367.006 367.082 367.163 367.243 367.315 367.377 367.433 367.483 367.53 367.57 367.604 367.637 367.678 367.726 367.776 367.837 367.915 368.01 368.118 368.247 368.405 368.598 368.821 369.068 369.332 369.621 369.936 370.259 370.572 370.874 371.175 371.462 371.724 371.954 372.16 372.346 372.513 372.661 372.785 372.897 373.006 373.115 373.217 373.315 373.409 373.499 373.584 373.666 373.746 373.826 373.904 373.978 374.047 374.109 374.167 374.218 374.259
337.51 337.73 337.933 338.105 338.262 338.425 338.596 338.768 338.939 339.108 339.281 339.459 339.627 339.772 339.895 340.004 340.085 340.126 340.123 340.083 340.006 339.894 339.741 339.545 339.324 339.094 338.848 338.579 338.312 338.069 337.856 337.659 337.483 337.334 337.224 337.148 337.083 337.006 336.921 336.838 336.736 336.591 336.391 336.15 335.879 335.59 335.269 334.91 334.555 334.245 333.977 333.732 333.537 333.421 333.397 333.448 333.565 333.736 333.974 334.283 334.629 334.981 335.339 335.72 336.102 336.461 336.79 337.101 337.399 337.689 337.964 338.221 338.483 338.771 339.088 339.422 339.783 340.179 340.621 341.104 341.608 342.114 342.632 343.169 343.694 344.175 344.613 345.023 345.386 345.683 345.908 346.072 346.176 346.221 346.202 346.117 345.984 345.82 345.619 345.371 345.103 344.839 344.578 344.308 344.045 343.803 343.588 343.392 343.211 343.04 342.885 342.747 342.613 342.471 342.321 342.168 342.008 341.835 341.648 341.448 341.238 341.019 340.792 340.554 340.309 340.061 339.808 339.549 339.289 339.03 338.773 338.517 338.263 338.013 337.773 337.542 337.305 337.046 336.771 336.488 336.174 335.804 335.373 334.893 334.363 333.783 333.138 332.431 331.692 330.953 330.208 329.441 328.687 327.98 327.328 326.713 326.137 325.601 325.121 324.695 324.287 323.861 323.424 322.994 322.533 322.002 321.39 320.718 319.987 319.202 318.342 317.408 316.445 315.499 314.566 313.621 312.705 311.856 311.088 310.382 309.726 309.109 308.548 308.049 307.563 307.047 306.494 305.929 305.334 304.692 303.975 303.196 302.402 301.643 300.897 300.142 299.454 298.908 298.515 298.235 298.09 298.106 298.309 298.686 299.187 299.765 300.44 301.236 302.075 302.878 303.645 304.415 305.144 305.786 306.324 306.785 307.175 307.498 307.741 307.901 308.016 308.122 308.211 308.265 308.324 308.428 308.577 308.751 308.973 309.266 309.648 310.103 310.611 311.151 311.728 312.35 312.999 313.652 314.299 314.95 315.62 316.325 317.057 317.807 318.606 319.48 320.448 321.491 322.592 323.734 324.941 326.218 327.503 328.732 329.907 331.059 332.147 333.129 333.984 334.737 335.404 336.002 336.52 336.95 337.328 337.691 338.04 338.358 338.66 338.966 339.275 339.579 339.887 340.21 340.546 340.889 341.252 341.65 342.083 342.546 343.042 343.576 344.155 344.775 345.425 346.092 346.775 347.481 348.202 348.929 349.657 350.388 351.135 351.906 352.701 353.513 354.354 355.234 356.175 357.168 358.175 359.157 360.122 361.091 362.018 362.854 363.588 364.247 364.825 365.314 365.698 365.982 366.2 366.384 366.533 366.627 366.697 366.773 366.862 366.948 367.034 367.122 367.218 367.319 367.419 367.509 367.588 367.659 367.725 367.785 367.839 367.884 367.929 367.981 368.038 368.098 368.168 368.254 368.354 368.466 368.598 368.758 368.951 369.172 369.416 369.677 369.962 370.272 370.591 370.899 371.197 371.494 371.779 372.038 372.267 372.473 372.659 372.826 372.974 373.099 373.211 373.32 373.428 373.53 373.626 373.717 373.804 373.885 373.963 374.038 374.112 374.183 374.251 374.312 374.367 374.418 374.461 374.496
338.137 338.349 338.547 338.714 338.868 339.026 339.195 339.364 339.533 339.7 339.872 340.049 340.215 340.358 340.479 340.586 340.664 340.7 340.691 340.643 340.558 340.437 340.272 340.064 339.83 339.587 339.33 339.05 338.772 338.52 338.298 338.094 337.911 337.755 337.637 337.554 337.481 337.395 337.299 337.205 337.09 336.934 336.723 336.471 336.191 335.896 335.57 335.21 334.856 334.548 334.284 334.045 333.857 333.747 333.727 333.781 333.9 334.071 334.307 334.611 334.952 335.299 335.652 336.028 336.405 336.761 337.088 337.398 337.698 337.991 338.271 338.535 338.805 339.104 339.433 339.78 340.156 340.567 341.025 341.525 342.046 342.568 343.099 343.649 344.186 344.677 345.121 345.535 345.901 346.2 346.424 346.585 346.686 346.73 346.708 346.622 346.487 346.322 346.12 345.873 345.604 345.338 345.075 344.801 344.532 344.283 344.059 343.851 343.657 343.472 343.301 343.146 342.994 342.834 342.666 342.495 342.316 342.126 341.922 341.706 341.481 341.249 341.009 340.761 340.507 340.249 339.989 339.723 339.456 339.189 338.923 338.658 338.392 338.129 337.872 337.623 337.366 337.089 336.797 336.497 336.167 335.787 335.352 334.872 334.348 333.778 333.149 332.463 331.748 331.033 330.311 329.57 328.839 328.15 327.512 326.908 326.339 325.807 325.327 324.898 324.485 324.056 323.618 323.186 322.725 322.197 321.592 320.93 320.212 319.439 318.592 317.674 316.727 315.793 314.869 313.932 313.021 312.173 311.404 310.692 310.028 309.402 308.832 308.321 307.825 307.301 306.743 306.175 305.58 304.942 304.235 303.47 302.694 301.953 301.228 300.497 299.833 299.306 298.928 298.661 298.526 298.545 298.745 299.111 299.598 300.159 300.814 301.585 302.399 303.18 303.928 304.681 305.395 306.027 306.563 307.025 307.42 307.753 308.01 308.189 308.325 308.452 308.563 308.641 308.722 308.845 309.009 309.196 309.427 309.725 310.105 310.555 311.053 311.581 312.14 312.74 313.365 313.994 314.617 315.244 315.891 316.576 317.29 318.026 318.811 319.675 320.633 321.669 322.764 323.899 325.097 326.366 327.642 328.862 330.024 331.163 332.237 333.207 334.052 334.795 335.455 336.049 336.569 337.004 337.39 337.763 338.127 338.462 338.784 339.108 339.434 339.755 340.079 340.414 340.756 341.102 341.464 341.856 342.278 342.723 343.199 343.711 344.264 344.857 345.478 346.118 346.777 347.46 348.161 348.873 349.589 350.315 351.059 351.83 352.628 353.447 354.297 355.185 356.133 357.133 358.146 359.132 360.098 361.066 361.99 362.824 363.555 364.21 364.784 365.272 365.658 365.946 366.169 366.362 366.523 366.633 366.721 366.816 366.926 367.034 367.142 367.253 367.37 367.492 367.611 367.72 367.815 367.902 367.981 368.055 368.121 368.178 368.234 368.296 368.363 368.432 368.509 368.601 368.707 368.822 368.956 369.116 369.308 369.527 369.767 370.024 370.304 370.609 370.922 371.225 371.519 371.813 372.094 372.351 372.579 372.785 372.971 373.139 373.287 373.414 373.527 373.637 373.744 373.845 373.94 374.03 374.113 374.19 374.262 374.332 374.399 374.462 374.522 374.575 374.622 374.664 374.699 374.727
338.757 338.964 339.157 339.32 339.472 339.629 339.797 339.965 340.133 340.299 340.471 340.647 340.813 340.955 341.074 341.178 341.253 341.284 341.268 341.212 341.118 340.986 340.809 340.588 340.34 340.085 339.816 339.524 339.235 338.973 338.742 338.531 338.342 338.179 338.054 337.964 337.884 337.789 337.683 337.577 337.451 337.284 337.063 336.801 336.512 336.211 335.883 335.523 335.17 334.864 334.605 334.373 334.192 334.087 334.07 334.126 334.246 334.416 334.648 334.946 335.281 335.621 335.968 336.337 336.708 337.06 337.385 337.695 337.995 338.292 338.576 338.847 339.126 339.435 339.775 340.136 340.525 340.951 341.425 341.941 342.479 343.016 343.561 344.124 344.673 345.173 345.624 346.042 346.41 346.71 346.935 347.094 347.192 347.233 347.209 347.121 346.984 346.817 346.614 346.367 346.098 345.83 345.564 345.287 345.014 344.758 344.525 344.307 344.101 343.904 343.718 343.546 343.378 343.201 343.015 342.826 342.629 342.422 342.201 341.969 341.729 341.483 341.231 340.971 340.707 340.441 340.172 339.9 339.626 339.351 339.076 338.801 338.525 338.248 337.975 337.706 337.43 337.134 336.824 336.504 336.158 335.768 335.327 334.848 334.327 333.766 333.152 332.487 331.797 331.105 330.408 329.691 328.985 328.316 327.693 327.099 326.537 326.009 325.53 325.097 324.679 324.246 323.804 323.369 322.906 322.379 321.779 321.126 320.418 319.657 318.824 317.921 316.989 316.069 315.156 314.229 313.325 312.482 311.713 310.998 310.329 309.697 309.119 308.598 308.091 307.559 306.996 306.423 305.827 305.191 304.491 303.737 302.976 302.25 301.544 300.834 300.191 299.682 299.319 299.065 298.939 298.961 299.157 299.514 299.988 300.534 301.17 301.919 302.709 303.47 304.201 304.938 305.639 306.264 306.797 307.263 307.665 308.008 308.28 308.478 308.636 308.784 308.917 309.018 309.123 309.264 309.444 309.643 309.883 310.185 310.565 311.008 311.497 312.012 312.555 313.135 313.737 314.345 314.947 315.551 316.177 316.842 317.54 318.262 319.035 319.887 320.835 321.863 322.949 324.076 325.263 326.521 327.786 328.993 330.142 331.265 332.325 333.282 334.116 334.85 335.503 336.094 336.615 337.056 337.45 337.834 338.212 338.565 338.905 339.247 339.59 339.928 340.267 340.613 340.962 341.311 341.673 342.059 342.47 342.9 343.356 343.846 344.376 344.94 345.533 346.146 346.781 347.441 348.122 348.817 349.523 350.242 350.983 351.754 352.555 353.382 354.241 355.137 356.092 357.099 358.119 359.109 360.077 361.044 361.966 362.797 363.526 364.177 364.747 365.234 365.623 365.914 366.144 366.347 366.521 366.647 366.754 366.869 366.999 367.131 367.263 367.396 367.534 367.677 367.815 367.942 368.054 368.155 368.248 368.335 368.413 368.481 368.546 368.617 368.694 368.771 368.855 368.953 369.063 369.182 369.317 369.478 369.669 369.885 370.122 370.375 370.65 370.95 371.257 371.555 371.845 372.135 372.414 372.669 372.896 373.101 373.288 373.457 373.606 373.733 373.848 373.958 374.065 374.165 374.258 374.345 374.424 374.496 374.563 374.625 374.685 374.74 374.79 374.835 374.873 374.906 374.933 374.954
339.375 339.577 339.766 339.928 340.079 340.235 340.402 340.57 340.738 340.905 341.076 341.252 341.417 341.557 341.674 341.775 341.846 341.872 341.848 341.783 341.678 341.535 341.345 341.109 340.847 340.577 340.295 339.991 339.691 339.418 339.18 338.963 338.768 338.6 338.469 338.373 338.288 338.187 338.073 337.958 337.823 337.647 337.419 337.149 336.853 336.547 336.217 335.858 335.507 335.204 334.95 334.723 334.548 334.447 334.432 334.49 334.609 334.777 335.003 335.294 335.619 335.951 336.291 336.652 337.015 337.362 337.684 337.993 338.294 338.592 338.882 339.159 339.446 339.763 340.115 340.488 340.891 341.331 341.819 342.351 342.904 343.455 344.014 344.59 345.149 345.658 346.115 346.538 346.908 347.209 347.433 347.59 347.685 347.723 347.697 347.606 347.468 347.299 347.096 346.849 346.58 346.312 346.044 345.765 345.488 345.227 344.987 344.761 344.544 344.335 344.136 343.949 343.765 343.572 343.369 343.162 342.948 342.724 342.487 342.239 341.983 341.723 341.459 341.188 340.914 340.638 340.361 340.082 339.802 339.519 339.235 338.95 338.662 338.372 338.083 337.795 337.499 337.185 336.857 336.519 336.157 335.755 335.31 334.829 334.313 333.759 333.16 332.515 331.847 331.178 330.503 329.811 329.127 328.478 327.868 327.285 326.731 326.207 325.728 325.291 324.867 324.429 323.984 323.545 323.079 322.553 321.958 321.311 320.613 319.863 319.043 318.155 317.239 316.333 315.432 314.517 313.622 312.785 312.019 311.304 310.631 309.995 309.411 308.88 308.364 307.823 307.253 306.674 306.073 305.437 304.741 303.995 303.244 302.531 301.839 301.148 300.524 300.031 299.682 299.44 299.324 299.351 299.546 299.896 300.359 300.892 301.513 302.242 303.012 303.756 304.472 305.194 305.885 306.503 307.036 307.505 307.915 308.269 308.555 308.772 308.951 309.12 309.274 309.398 309.524 309.683 309.877 310.088 310.337 310.643 311.022 311.46 311.94 312.444 312.972 313.534 314.116 314.704 315.286 315.871 316.477 317.125 317.808 318.516 319.277 320.117 321.054 322.071 323.147 324.262 325.437 326.681 327.932 329.124 330.257 331.364 332.408 333.352 334.175 334.899 335.545 336.134 336.656 337.103 337.507 337.902 338.294 338.664 339.023 339.382 339.743 340.098 340.453 340.811 341.167 341.521 341.883 342.265 342.667 343.082 343.519 343.989 344.495 345.032 345.596 346.183 346.794 347.43 348.089 348.768 349.462 350.174 350.911 351.681 352.486 353.32 354.187 355.092 356.054 357.069 358.095 359.089 360.058 361.025 361.945 362.774 363.5 364.147 364.714 365.201 365.592 365.888 366.125 366.338 366.526 366.67 366.796 366.931 367.083 367.238 367.394 367.55 367.709 367.871 368.029 368.173 368.3 368.415 368.52 368.618 368.707 368.785 368.86 368.94 369.024 369.109 369.201 369.305 369.419 369.542 369.68 369.842 370.033 370.247 370.481 370.731 371.003 371.298 371.6 371.894 372.181 372.468 372.743 372.996 373.222 373.428 373.614 373.784 373.933 374.061 374.176 374.285 374.391 374.489 374.579 374.662 374.736 374.802 374.862 374.917 374.968 375.014 375.055 375.09 375.12 375.144 375.164 375.178
339.989 340.188 340.375 340.537 340.688 340.845 341.012 341.182 341.351 341.518 341.689 341.866 342.031 342.169 342.283 342.38 342.446 342.465 342.433 342.358 342.241 342.085 341.881 341.629 341.351 341.067 340.771 340.455 340.143 339.861 339.615 339.392 339.193 339.02 338.885 338.786 338.696 338.59 338.47 338.348 338.206 338.023 337.788 337.512 337.211 336.902 336.572 336.214 335.867 335.567 335.318 335.097 334.928 334.831 334.817 334.874 334.991 335.154 335.374 335.655 335.97 336.292 336.622 336.973 337.328 337.668 337.986 338.292 338.593 338.893 339.186 339.469 339.763 340.09 340.451 340.837 341.253 341.706 342.208 342.756 343.324 343.889 344.46 345.048 345.618 346.136 346.599 347.026 347.399 347.7 347.924 348.078 348.17 348.206 348.177 348.084 347.942 347.772 347.568 347.321 347.053 346.784 346.515 346.235 345.957 345.692 345.446 345.213 344.988 344.768 344.558 344.358 344.158 343.95 343.731 343.507 343.276 343.035 342.782 342.517 342.246 341.972 341.695 341.413 341.128 340.843 340.558 340.272 339.984 339.694 339.4 339.105 338.806 338.503 338.198 337.891 337.576 337.243 336.897 336.541 336.162 335.749 335.297 334.815 334.3 333.754 333.168 332.541 331.895 331.248 330.595 329.926 329.266 328.635 328.039 327.467 326.92 326.401 325.921 325.479 325.049 324.605 324.155 323.711 323.241 322.714 322.122 321.481 320.791 320.05 319.243 318.371 317.471 316.58 315.693 314.792 313.91 313.082 312.321 311.608 310.936 310.298 309.708 309.169 308.644 308.094 307.516 306.929 306.321 305.68 304.985 304.243 303.498 302.794 302.114 301.439 300.83 300.352 300.015 299.785 299.679 299.711 299.905 300.25 300.705 301.228 301.836 302.548 303.301 304.03 304.733 305.444 306.126 306.74 307.273 307.747 308.166 308.531 308.833 309.07 309.269 309.459 309.633 309.779 309.926 310.102 310.31 310.532 310.789 311.099 311.477 311.911 312.383 312.876 313.391 313.936 314.5 315.071 315.637 316.204 316.793 317.426 318.095 318.791 319.539 320.367 321.291 322.296 323.359 324.46 325.62 326.848 328.082 329.258 330.374 331.462 332.489 333.418 334.23 334.944 335.583 336.169 336.694 337.147 337.56 337.967 338.373 338.76 339.137 339.513 339.89 340.263 340.633 341.003 341.367 341.726 342.09 342.469 342.862 343.263 343.683 344.133 344.616 345.125 345.662 346.223 346.809 347.421 348.058 348.72 349.402 350.106 350.839 351.609 352.416 353.258 354.135 355.049 356.018 357.04 358.073 359.072 360.043 361.009 361.927 362.755 363.479 364.122 364.687 365.173 365.567 365.869 366.113 366.337 366.539 366.701 366.848 367.004 367.178 367.357 367.537 367.716 367.895 368.077 368.253 368.414 368.556 368.683 368.799 368.908 369.007 369.094 369.178 369.266 369.358 369.449 369.547 369.657 369.776 369.902 370.043 370.208 370.399 370.612 370.844 371.092 371.36 371.651 371.95 372.24 372.524 372.808 373.082 373.333 373.558 373.764 373.951 374.12 374.269 374.397 374.512 374.62 374.723 374.818 374.904 374.981 375.049 375.107 375.158 375.204 375.246 375.281 375.312 375.337 375.358 375.373 375.384 375.392
340.598 340.795 340.982 341.145 341.298 341.457 341.627 341.798 341.97 342.138 342.311 342.487 342.652 342.789 342.9 342.994 343.054 343.066 343.024 342.938 342.808 342.639 342.419 342.151 341.855 341.555 341.246 340.917 340.593 340.301 340.049 339.82 339.617 339.441 339.302 339.201 339.108 338.999 338.874 338.746 338.597 338.409 338.169 337.888 337.583 337.272 336.942 336.588 336.244 335.95 335.705 335.491 335.327 335.233 335.219 335.275 335.388 335.546 335.757 336.026 336.329 336.64 336.958 337.298 337.643 337.975 338.289 338.592 338.891 339.193 339.489 339.778 340.079 340.414 340.785 341.182 341.611 342.077 342.593 343.155 343.737 344.316 344.899 345.499 346.08 346.607 347.076 347.506 347.881 348.184 348.407 348.559 348.648 348.68 348.649 348.552 348.408 348.236 348.031 347.784 347.516 347.248 346.978 346.698 346.419 346.152 345.902 345.662 345.43 345.202 344.981 344.769 344.556 344.333 344.099 343.859 343.611 343.353 343.083 342.803 342.516 342.227 341.938 341.644 341.348 341.053 340.759 340.467 340.172 339.873 339.571 339.265 338.955 338.638 338.317 337.992 337.657 337.306 336.942 336.566 336.171 335.745 335.287 334.801 334.288 333.748 333.174 332.565 331.94 331.313 330.682 330.037 329.399 328.787 328.206 327.644 327.105 326.59 326.11 325.662 325.225 324.775 324.319 323.868 323.393 322.864 322.273 321.636 320.952 320.221 319.426 318.569 317.686 316.811 315.94 315.054 314.187 313.371 312.618 311.911 311.242 310.604 310.01 309.464 308.929 308.371 307.784 307.186 306.569 305.922 305.224 304.483 303.741 303.042 302.371 301.708 301.113 300.647 300.322 300.104 300.007 300.045 300.24 300.582 301.03 301.545 302.142 302.84 303.578 304.294 304.987 305.688 306.363 306.974 307.51 307.99 308.418 308.796 309.113 309.369 309.59 309.8 309.995 310.162 310.329 310.523 310.743 310.976 311.24 311.555 311.932 312.361 312.825 313.309 313.812 314.343 314.891 315.447 315.997 316.55 317.125 317.743 318.399 319.084 319.821 320.636 321.546 322.536 323.585 324.67 325.813 327.022 328.236 329.393 330.49 331.559 332.567 333.481 334.28 334.985 335.618 336.201 336.728 337.188 337.611 338.03 338.449 338.852 339.246 339.639 340.032 340.423 340.809 341.191 341.563 341.928 342.294 342.671 343.056 343.445 343.848 344.279 344.74 345.223 345.731 346.266 346.828 347.416 348.03 348.674 349.344 350.04 350.769 351.537 352.348 353.198 354.084 355.006 355.983 357.014 358.054 359.058 360.031 360.997 361.913 362.739 363.461 364.101 364.663 365.15 365.547 365.854 366.107 366.342 366.56 366.741 366.909 367.087 367.284 367.488 367.692 367.893 368.094 368.296 368.49 368.667 368.822 368.96 369.086 369.205 369.313 369.408 369.5 369.595 369.694 369.792 369.896 370.01 370.134 370.265 370.409 370.575 370.767 370.98 371.211 371.457 371.723 372.01 372.305 372.592 372.873 373.155 373.427 373.677 373.902 374.107 374.294 374.464 374.612 374.74 374.854 374.96 375.06 375.15 375.231 375.302 375.363 375.412 375.454 375.49 375.521 375.545 375.564 375.579 375.59 375.596 375.599 375.601
341.206 341.401 341.588 341.753 341.909 342.07 342.242 342.417 342.591 342.762 342.935 343.113 343.278 343.414 343.522 343.612 343.667 343.671 343.62 343.521 343.378 343.194 342.958 342.671 342.357 342.041 341.717 341.373 341.037 340.735 340.475 340.242 340.036 339.856 339.716 339.613 339.521 339.41 339.282 339.15 338.998 338.806 338.563 338.278 337.971 337.659 337.332 336.98 336.641 336.35 336.11 335.901 335.742 335.65 335.635 335.688 335.795 335.946 336.148 336.405 336.694 336.992 337.299 337.627 337.96 338.284 338.592 338.892 339.19 339.493 339.792 340.086 340.394 340.737 341.118 341.526 341.966 342.444 342.972 343.548 344.143 344.734 345.329 345.94 346.53 347.064 347.538 347.973 348.35 348.653 348.875 349.025 349.111 349.14 349.106 349.007 348.86 348.686 348.48 348.234 347.968 347.7 347.431 347.151 346.872 346.603 346.35 346.106 345.868 345.632 345.402 345.178 344.952 344.716 344.467 344.211 343.946 343.672 343.387 343.091 342.788 342.486 342.183 341.877 341.571 341.266 340.964 340.664 340.362 340.055 339.743 339.427 339.105 338.775 338.438 338.095 337.741 337.371 336.989 336.595 336.182 335.745 335.28 334.791 334.279 333.745 333.182 332.591 331.985 331.379 330.768 330.146 329.53 328.936 328.368 327.818 327.286 326.775 326.294 325.842 325.398 324.942 324.48 324.022 323.541 323.009 322.419 321.785 321.107 320.384 319.601 318.759 317.892 317.033 316.178 315.309 314.458 313.654 312.911 312.211 311.547 310.91 310.314 309.761 309.219 308.652 308.054 307.445 306.816 306.161 305.458 304.714 303.972 303.275 302.612 301.959 301.376 300.921 300.607 300.401 300.315 300.36 300.557 300.898 301.343 301.853 302.441 303.127 303.853 304.559 305.243 305.937 306.606 307.215 307.753 308.24 308.677 309.067 309.399 309.675 309.916 310.146 310.36 310.548 310.733 310.943 311.176 311.42 311.691 312.01 312.386 312.811 313.268 313.743 314.236 314.754 315.288 315.83 316.368 316.907 317.469 318.075 318.719 319.391 320.116 320.918 321.813 322.788 323.82 324.887 326.01 327.198 328.39 329.526 330.602 331.65 332.639 333.537 334.324 335.019 335.645 336.227 336.757 337.225 337.659 338.09 338.523 338.944 339.356 339.766 340.177 340.585 340.987 341.382 341.764 342.136 342.505 342.88 343.259 343.636 344.025 344.438 344.876 345.333 345.814 346.323 346.859 347.421 348.013 348.638 349.295 349.982 350.705 351.472 352.285 353.142 354.038 354.969 355.953 356.992 358.039 359.047 360.022 360.987 361.902 362.726 363.446 364.082 364.642 365.13 365.531 365.844 366.106 366.353 366.587 366.788 366.977 367.178 367.398 367.626 367.856 368.08 368.3 368.521 368.732 368.925 369.092 369.241 369.377 369.504 369.621 369.724 369.824 369.926 370.032 370.136 370.246 370.366 370.495 370.63 370.778 370.948 371.141 371.354 371.584 371.829 372.093 372.377 372.669 372.954 373.232 373.512 373.782 374.03 374.254 374.459 374.646 374.815 374.962 375.09 375.202 375.305 375.401 375.486 375.561 375.625 375.678 375.719 375.751 375.777 375.798 375.811 375.818 375.823 375.825 375.823 375.818 375.814
341.814 342.008 342.195 342.361 342.519 342.683 342.857 343.034 343.211 343.384 343.56 343.739 343.905 344.039 344.145 344.231 344.281 344.278 344.217 344.105 343.948 343.749 343.496 343.189 342.855 342.52 342.18 341.821 341.471 341.158 340.89 340.652 340.443 340.262 340.121 340.02 339.929 339.82 339.692 339.56 339.407 339.215 338.971 338.686 338.378 338.067 337.741 337.393 337.057 336.769 336.532 336.327 336.171 336.079 336.061 336.109 336.21 336.352 336.543 336.786 337.062 337.346 337.641 337.957 338.279 338.595 338.897 339.194 339.491 339.794 340.096 340.394 340.709 341.06 341.449 341.867 342.318 342.807 343.346 343.933 344.54 345.141 345.746 346.365 346.964 347.503 347.982 348.419 348.797 349.101 349.322 349.469 349.552 349.579 349.543 349.441 349.292 349.117 348.912 348.668 348.403 348.137 347.87 347.592 347.313 347.044 346.788 346.541 346.297 346.055 345.815 345.58 345.342 345.093 344.83 344.559 344.278 343.989 343.688 343.377 343.06 342.743 342.428 342.112 341.795 341.48 341.169 340.862 340.553 340.237 339.914 339.588 339.254 338.91 338.557 338.196 337.823 337.437 337.037 336.625 336.198 335.749 335.278 334.787 334.277 333.748 333.196 332.621 332.035 331.447 330.856 330.256 329.66 329.083 328.528 327.987 327.462 326.955 326.475 326.018 325.569 325.107 324.641 324.177 323.691 323.157 322.568 321.937 321.265 320.55 319.777 318.949 318.097 317.253 316.413 315.561 314.725 313.934 313.201 312.509 311.85 311.216 310.618 310.06 309.509 308.933 308.325 307.702 307.061 306.396 305.686 304.936 304.191 303.495 302.837 302.193 301.621 301.177 300.875 300.682 300.608 300.662 300.864 301.208 301.654 302.161 302.744 303.422 304.138 304.836 305.514 306.201 306.865 307.472 308.012 308.504 308.949 309.349 309.696 309.988 310.247 310.495 310.728 310.934 311.138 311.363 311.609 311.862 312.141 312.464 312.84 313.261 313.712 314.18 314.663 315.169 315.691 316.22 316.746 317.274 317.824 318.417 319.049 319.71 320.423 321.21 322.09 323.047 324.061 325.108 326.209 327.373 328.541 329.654 330.707 331.733 332.701 333.582 334.357 335.042 335.663 336.244 336.778 337.255 337.702 338.147 338.597 339.036 339.469 339.898 340.327 340.755 341.176 341.585 341.978 342.358 342.732 343.107 343.48 343.848 344.222 344.617 345.034 345.465 345.917 346.4 346.91 347.446 348.013 348.619 349.261 349.937 350.654 351.417 352.233 353.096 354.001 354.939 355.93 356.976 358.029 359.042 360.018 360.981 361.894 362.716 363.433 364.066 364.623 365.112 365.518 365.838 366.109 366.369 366.619 366.84 367.052 367.275 367.519 367.771 368.025 368.271 368.511 368.75 368.977 369.184 369.364 369.522 369.666 369.802 369.927 370.038 370.145 370.254 370.367 370.479 370.596 370.722 370.857 370.999 371.152 371.326 371.521 371.736 371.967 372.211 372.473 372.756 373.044 373.327 373.603 373.88 374.148 374.394 374.616 374.82 375.006 375.173 375.319 375.444 375.554 375.653 375.744 375.824 375.892 375.95 375.995 376.027 376.05 376.068 376.079 376.082 376.08 376.076 376.071 376.061 376.05 376.041
342.424 342.617 342.804 342.971 343.132 343.299 343.475 343.656 343.836 344.012 344.19 344.371 344.537 344.671 344.775 344.858 344.903 344.892 344.82 344.696 344.523 344.307 344.034 343.706 343.35 342.995 342.636 342.26 341.894 341.569 341.293 341.051 340.839 340.657 340.518 340.421 340.335 340.23 340.106 339.978 339.828 339.638 339.397 339.113 338.807 338.497 338.175 337.83 337.498 337.213 336.978 336.775 336.619 336.525 336.503 336.544 336.636 336.768 336.946 337.176 337.436 337.706 337.988 338.29 338.601 338.908 339.204 339.497 339.792 340.096 340.4 340.703 341.024 341.382 341.779 342.207 342.667 343.166 343.716 344.313 344.93 345.54 346.152 346.779 347.384 347.929 348.41 348.848 349.227 349.531 349.751 349.895 349.975 350 349.962 349.858 349.709 349.533 349.33 349.088 348.826 348.562 348.297 348.022 347.746 347.477 347.22 346.969 346.722 346.473 346.225 345.98 345.73 345.468 345.192 344.905 344.609 344.305 343.99 343.664 343.333 343.004 342.677 342.349 342.022 341.697 341.377 341.062 340.745 340.42 340.087 339.749 339.403 339.045 338.676 338.297 337.907 337.504 337.088 336.66 336.218 335.759 335.282 334.789 334.281 333.758 333.217 332.657 332.088 331.518 330.945 330.364 329.788 329.226 328.683 328.152 327.634 327.131 326.65 326.191 325.736 325.27 324.799 324.331 323.841 323.305 322.716 322.089 321.421 320.713 319.951 319.135 318.298 317.468 316.643 315.807 314.987 314.21 313.488 312.806 312.154 311.522 310.923 310.36 309.801 309.216 308.596 307.958 307.301 306.623 305.903 305.144 304.392 303.694 303.038 302.401 301.838 301.405 301.114 300.936 300.876 300.942 301.152 301.502 301.951 302.46 303.042 303.715 304.426 305.119 305.792 306.473 307.133 307.739 308.282 308.779 309.231 309.641 310 310.307 310.584 310.849 311.099 311.322 311.543 311.782 312.04 312.303 312.59 312.917 313.294 313.712 314.158 314.619 315.094 315.59 316.101 316.62 317.135 317.653 318.192 318.773 319.394 320.043 320.743 321.516 322.378 323.316 324.308 325.333 326.41 327.547 328.689 329.776 330.806 331.807 332.753 333.617 334.379 335.055 335.67 336.25 336.791 337.278 337.739 338.2 338.667 339.127 339.581 340.031 340.481 340.929 341.369 341.795 342.201 342.591 342.972 343.349 343.718 344.076 344.437 344.816 345.211 345.615 346.04 346.494 346.978 347.486 348.027 348.611 349.238 349.903 350.611 351.371 352.187 353.056 353.968 354.914 355.911 356.964 358.023 359.04 360.017 360.979 361.889 362.709 363.424 364.054 364.609 365.098 365.509 365.836 366.118 366.391 366.658 366.9 367.135 367.381 367.647 367.924 368.201 368.469 368.728 368.983 369.226 369.446 369.637 369.804 369.956 370.099 370.231 370.35 370.464 370.58 370.701 370.821 370.945 371.079 371.222 371.37 371.531 371.709 371.909 372.126 372.358 372.603 372.865 373.146 373.432 373.712 373.986 374.261 374.526 374.77 374.99 375.192 375.375 375.539 375.682 375.803 375.909 376.003 376.088 376.161 376.221 376.271 376.308 376.331 376.346 376.355 376.357 376.351 376.341 376.33 376.317 376.302 376.286 376.273
343.033 343.226 343.413 343.583 343.747 343.916 344.096 344.28 344.464 344.642 344.822 345.006 345.174 345.308 345.41 345.49 345.529 345.511 345.427 345.289 345.1 344.866 344.573 344.221 343.841 343.465 343.086 342.691 342.309 341.971 341.687 341.439 341.226 341.045 340.909 340.818 340.74 340.642 340.524 340.402 340.258 340.074 339.837 339.557 339.254 338.948 338.629 338.288 337.959 337.676 337.443 337.24 337.083 336.986 336.958 336.991 337.073 337.193 337.358 337.571 337.815 338.07 338.338 338.627 338.925 339.222 339.512 339.801 340.095 340.398 340.704 341.012 341.339 341.704 342.108 342.544 343.014 343.522 344.08 344.686 345.312 345.93 346.548 347.181 347.791 348.339 348.823 349.262 349.641 349.943 350.162 350.304 350.381 350.403 350.364 350.259 350.109 349.934 349.732 349.494 349.235 348.975 348.713 348.442 348.169 347.901 347.644 347.392 347.141 346.887 346.631 346.376 346.115 345.842 345.552 345.251 344.94 344.622 344.293 343.953 343.608 343.266 342.927 342.589 342.251 341.916 341.588 341.265 340.94 340.605 340.261 339.911 339.551 339.18 338.795 338.399 337.992 337.572 337.14 336.697 336.242 335.773 335.292 334.797 334.29 333.773 333.241 332.696 332.144 331.591 331.035 330.472 329.913 329.367 328.835 328.312 327.801 327.302 326.822 326.359 325.9 325.431 324.956 324.483 323.989 323.451 322.864 322.238 321.575 320.873 320.12 319.317 318.493 317.677 316.867 316.048 315.245 314.482 313.772 313.1 312.456 311.829 311.23 310.662 310.096 309.501 308.868 308.213 307.539 306.846 306.113 305.341 304.58 303.876 303.22 302.588 302.034 301.61 301.331 301.168 301.123 301.202 301.423 301.782 302.239 302.753 303.336 304.008 304.716 305.406 306.076 306.754 307.411 308.017 308.562 309.063 309.522 309.941 310.311 310.634 310.926 311.207 311.472 311.712 311.948 312.201 312.47 312.743 313.037 313.369 313.747 314.163 314.604 315.059 315.528 316.016 316.518 317.027 317.534 318.042 318.572 319.143 319.753 320.39 321.076 321.833 322.677 323.594 324.564 325.564 326.614 327.723 328.835 329.895 330.899 331.874 332.798 333.643 334.391 335.058 335.669 336.249 336.796 337.295 337.772 338.25 338.736 339.217 339.693 340.165 340.637 341.108 341.569 342.012 342.431 342.833 343.222 343.602 343.968 344.318 344.668 345.03 345.404 345.783 346.179 346.606 347.062 347.541 348.055 348.616 349.226 349.878 350.577 351.331 352.148 353.022 353.941 354.893 355.897 356.956 358.022 359.043 360.02 360.981 361.888 362.706 363.417 364.044 364.597 365.088 365.504 365.839 366.132 366.419 366.704 366.968 367.226 367.494 367.784 368.085 368.386 368.674 368.951 369.223 369.479 369.712 369.913 370.088 370.246 370.396 370.536 370.662 370.782 370.906 371.034 371.162 371.295 371.437 371.588 371.745 371.913 372.098 372.302 372.523 372.758 373.004 373.267 373.546 373.831 374.109 374.381 374.653 374.915 375.156 375.373 375.572 375.752 375.912 376.051 376.168 376.268 376.356 376.434 376.499 376.551 376.592 376.62 376.636 376.642 376.642 376.636 376.622 376.604 376.586 376.568 376.547 376.528 376.512
343.641 343.833 344.02 344.191 344.356 344.528 344.71 344.898 345.085 345.266 345.449 345.635 345.805 345.939 346.039 346.116 346.152 346.126 346.031 345.879 345.675 345.422 345.109 344.733 344.328 343.929 343.53 343.115 342.715 342.364 342.071 341.82 341.605 341.425 341.293 341.21 341.141 341.052 340.943 340.829 340.694 340.518 340.287 340.012 339.714 339.412 339.097 338.759 338.433 338.151 337.917 337.714 337.554 337.453 337.418 337.44 337.511 337.619 337.769 337.966 338.194 338.434 338.688 338.963 339.25 339.537 339.821 340.106 340.398 340.701 341.009 341.321 341.654 342.024 342.436 342.879 343.357 343.872 344.437 345.05 345.683 346.306 346.929 347.566 348.179 348.729 349.214 349.653 350.031 350.333 350.549 350.689 350.764 350.784 350.744 350.639 350.489 350.315 350.116 349.881 349.627 349.371 349.114 348.847 348.577 348.312 348.055 347.802 347.548 347.289 347.027 346.763 346.492 346.207 345.905 345.59 345.265 344.933 344.591 344.237 343.88 343.526 343.176 342.827 342.48 342.135 341.798 341.466 341.133 340.788 340.433 340.07 339.698 339.312 338.912 338.499 338.075 337.64 337.194 336.736 336.268 335.791 335.305 334.809 334.305 333.792 333.271 332.739 332.203 331.665 331.125 330.58 330.038 329.505 328.984 328.47 327.964 327.469 326.99 326.526 326.064 325.591 325.113 324.637 324.14 323.601 323.014 322.391 321.732 321.036 320.291 319.499 318.687 317.885 317.089 316.286 315.498 314.749 314.052 313.391 312.756 312.135 311.535 310.965 310.392 309.788 309.142 308.471 307.779 307.07 306.323 305.538 304.765 304.055 303.399 302.771 302.224 301.81 301.543 301.395 301.367 301.461 301.694 302.065 302.532 303.054 303.641 304.314 305.021 305.71 306.378 307.053 307.706 308.311 308.858 309.363 309.827 310.252 310.633 310.968 311.275 311.569 311.849 312.104 312.355 312.621 312.9 313.183 313.485 313.821 314.2 314.614 315.052 315.502 315.965 316.445 316.939 317.44 317.939 318.439 318.96 319.521 320.12 320.745 321.418 322.159 322.983 323.878 324.824 325.798 326.82 327.898 328.979 330.01 330.986 331.935 332.834 333.661 334.396 335.054 335.661 336.242 336.796 337.309 337.803 338.3 338.807 339.311 339.812 340.307 340.802 341.296 341.779 342.241 342.676 343.09 343.487 343.871 344.235 344.579 344.917 345.264 345.618 345.97 346.338 346.737 347.165 347.615 348.101 348.639 349.231 349.869 350.558 351.306 352.121 352.999 353.925 354.883 355.891 356.957 358.027 359.051 360.028 360.985 361.889 362.703 363.412 364.034 364.585 365.077 365.498 365.842 366.147 366.448 366.752 367.038 367.32 367.613 367.925 368.25 368.574 368.883 369.178 369.465 369.735 369.979 370.189 370.372 370.537 370.694 370.84 370.972 371.099 371.231 371.367 371.505 371.646 371.797 371.957 372.123 372.3 372.492 372.702 372.927 373.164 373.413 373.676 373.955 374.238 374.514 374.784 375.054 375.313 375.551 375.765 375.96 376.137 376.293 376.427 376.539 376.634 376.716 376.787 376.844 376.888 376.921 376.941 376.949 376.948 376.941 376.929 376.908 376.883 376.86 376.837 376.814 376.791 376.774
344.245 344.434 344.62 344.79 344.956 345.128 345.312 345.502 345.692 345.875 346.06 346.249 346.421 346.555 346.655 346.73 346.762 346.729 346.625 346.46 346.24 345.97 345.636 345.237 344.808 344.387 343.967 343.532 343.114 342.75 342.449 342.192 341.977 341.798 341.672 341.597 341.539 341.46 341.36 341.258 341.132 340.965 340.741 340.473 340.18 339.882 339.57 339.235 338.909 338.628 338.392 338.186 338.023 337.915 337.871 337.883 337.941 338.037 338.173 338.355 338.567 338.793 339.033 339.296 339.572 339.851 340.129 340.411 340.701 341.005 341.315 341.631 341.969 342.344 342.761 343.211 343.695 344.215 344.786 345.403 346.04 346.666 347.292 347.93 348.543 349.094 349.578 350.016 350.392 350.693 350.907 351.046 351.119 351.138 351.098 350.993 350.845 350.673 350.478 350.247 349.999 349.747 349.494 349.232 348.967 348.704 348.447 348.194 347.938 347.675 347.407 347.134 346.853 346.558 346.244 345.917 345.579 345.233 344.879 344.513 344.144 343.779 343.419 343.06 342.703 342.35 342.003 341.663 341.321 340.967 340.6 340.225 339.839 339.439 339.024 338.595 338.155 337.705 337.245 336.775 336.295 335.811 335.321 334.825 334.324 333.817 333.305 332.787 332.266 331.743 331.218 330.689 330.162 329.642 329.13 328.624 328.124 327.633 327.156 326.691 326.228 325.753 325.275 324.796 324.298 323.76 323.174 322.554 321.898 321.208 320.47 319.687 318.886 318.095 317.312 316.523 315.749 315.013 314.327 313.678 313.052 312.436 311.838 311.266 310.688 310.077 309.42 308.734 308.026 307.303 306.543 305.744 304.96 304.243 303.587 302.963 302.423 302.019 301.765 301.634 301.624 301.733 301.981 302.366 302.845 303.376 303.969 304.644 305.352 306.04 306.707 307.378 308.028 308.63 309.177 309.682 310.149 310.579 310.968 311.313 311.631 311.938 312.23 312.5 312.764 313.042 313.331 313.624 313.933 314.274 314.654 315.067 315.501 315.947 316.404 316.877 317.362 317.855 318.346 318.838 319.351 319.902 320.49 321.104 321.763 322.488 323.292 324.165 325.085 326.033 327.026 328.072 329.12 330.121 331.069 331.99 332.864 333.671 334.393 335.043 335.647 336.231 336.794 337.323 337.837 338.355 338.885 339.415 339.942 340.464 340.983 341.502 342.008 342.488 342.938 343.366 343.772 344.16 344.523 344.86 345.187 345.52 345.853 346.181 346.521 346.892 347.293 347.713 348.171 348.685 349.259 349.882 350.56 351.3 352.113 352.994 353.925 354.888 355.899 356.968 358.041 359.066 360.04 360.993 361.89 362.699 363.403 364.021 364.569 365.061 365.488 365.842 366.158 366.475 366.799 367.108 367.415 367.732 368.068 368.417 368.764 369.094 369.405 369.707 369.99 370.245 370.465 370.655 370.827 370.99 371.144 371.282 371.416 371.556 371.702 371.849 372.001 372.162 372.331 372.507 372.692 372.892 373.107 373.337 373.577 373.828 374.092 374.37 374.652 374.926 375.194 375.461 375.718 375.953 376.164 376.356 376.529 376.682 376.811 376.918 377.008 377.085 377.15 377.2 377.238 377.265 377.28 377.282 377.275 377.264 377.247 377.221 377.193 377.166 377.141 377.116 377.092 377.074
344.85 345.035 345.218 345.387 345.551 345.723 345.908 346.099 346.291 346.476 346.664 346.855 347.03 347.165 347.265 347.34 347.368 347.33 347.217 347.04 346.805 346.518 346.163 345.74 345.286 344.841 344.4 343.943 343.506 343.127 342.816 342.555 342.338 342.161 342.041 341.977 341.931 341.865 341.777 341.687 341.575 341.418 341.203 340.943 340.656 340.363 340.054 339.72 339.394 339.111 338.872 338.661 338.491 338.375 338.321 338.322 338.367 338.449 338.571 338.737 338.934 339.146 339.375 339.626 339.892 340.164 340.437 340.716 341.005 341.309 341.621 341.941 342.284 342.664 343.085 343.54 344.029 344.553 345.126 345.746 346.383 347.01 347.636 348.273 348.884 349.433 349.915 350.35 350.724 351.022 351.236 351.372 351.445 351.464 351.425 351.322 351.176 351.007 350.816 350.592 350.349 350.103 349.855 349.599 349.338 349.078 348.823 348.569 348.312 348.046 347.772 347.492 347.201 346.896 346.572 346.232 345.882 345.524 345.158 344.782 344.402 344.026 343.656 343.288 342.922 342.56 342.204 341.855 341.504 341.139 340.76 340.372 339.973 339.559 339.129 338.685 338.229 337.765 337.293 336.811 336.322 335.831 335.339 334.844 334.346 333.846 333.344 332.839 332.332 331.824 331.313 330.798 330.285 329.777 329.274 328.775 328.281 327.795 327.32 326.856 326.393 325.918 325.44 324.962 324.464 323.926 323.342 322.724 322.072 321.387 320.656 319.881 319.089 318.307 317.535 316.758 315.997 315.273 314.598 313.96 313.343 312.733 312.138 311.564 310.983 310.365 309.698 308.997 308.273 307.534 306.759 305.946 305.149 304.425 303.767 303.147 302.615 302.221 301.981 301.868 301.877 302.004 302.269 302.672 303.167 303.71 304.312 304.993 305.704 306.394 307.059 307.727 308.373 308.973 309.518 310.022 310.489 310.922 311.316 311.669 311.997 312.314 312.617 312.899 313.176 313.465 313.764 314.065 314.382 314.727 315.109 315.52 315.951 316.393 316.845 317.312 317.789 318.274 318.758 319.242 319.746 320.288 320.864 321.466 322.112 322.82 323.604 324.453 325.347 326.268 327.23 328.242 329.257 330.226 331.144 332.036 332.884 333.671 334.381 335.023 335.625 336.212 336.787 337.334 337.87 338.411 338.967 339.526 340.083 340.632 341.178 341.723 342.253 342.754 343.221 343.663 344.079 344.472 344.834 345.166 345.483 345.801 346.115 346.417 346.729 347.073 347.445 347.835 348.264 348.753 349.307 349.913 350.579 351.311 352.12 353.003 353.937 354.902 355.915 356.987 358.062 359.086 360.056 361.001 361.891 362.694 363.393 364.004 364.548 365.042 365.475 365.838 366.168 366.501 366.845 367.179 367.512 367.853 368.214 368.587 368.957 369.306 369.634 369.95 370.245 370.511 370.74 370.937 371.115 371.285 371.446 371.591 371.732 371.88 372.036 372.194 372.358 372.53 372.71 372.896 373.091 373.298 373.52 373.754 373.998 374.251 374.515 374.793 375.073 375.345 375.611 375.876 376.129 376.36 376.568 376.756 376.925 377.073 377.198 377.3 377.385 377.456 377.516 377.56 377.592 377.614 377.625 377.624 377.614 377.6 377.58 377.553 377.523 377.496 377.47 377.445 377.422 377.405
345.453 345.634 345.813 345.978 346.141 346.312 346.496 346.688 346.881 347.068 347.258 347.453 347.63 347.767 347.868 347.943 347.97 347.926 347.804 347.616 347.366 347.062 346.687 346.238 345.759 345.291 344.827 344.347 343.89 343.496 343.176 342.909 342.691 342.517 342.403 342.351 342.319 342.267 342.193 342.119 342.021 341.878 341.673 341.422 341.142 340.854 340.547 340.214 339.888 339.601 339.358 339.14 338.962 338.837 338.771 338.759 338.79 338.858 338.965 339.117 339.298 339.497 339.714 339.955 340.212 340.476 340.744 341.021 341.309 341.613 341.928 342.251 342.598 342.983 343.408 343.866 344.359 344.885 345.459 346.079 346.715 347.34 347.963 348.596 349.204 349.749 350.227 350.659 351.03 351.325 351.537 351.673 351.745 351.765 351.727 351.627 351.484 351.32 351.134 350.916 350.68 350.44 350.198 349.948 349.693 349.437 349.183 348.93 348.672 348.403 348.123 347.836 347.537 347.223 346.889 346.538 346.176 345.807 345.431 345.044 344.654 344.268 343.889 343.513 343.139 342.767 342.403 342.045 341.683 341.308 340.917 340.516 340.102 339.675 339.23 338.77 338.3 337.823 337.339 336.846 336.349 335.853 335.36 334.867 334.374 333.88 333.387 332.895 332.402 331.907 331.409 330.908 330.408 329.91 329.416 328.924 328.435 327.952 327.481 327.019 326.557 326.085 325.608 325.131 324.634 324.098 323.517 322.902 322.253 321.572 320.847 320.078 319.293 318.519 317.757 316.991 316.242 315.528 314.864 314.237 313.631 313.027 312.435 311.862 311.278 310.655 309.977 309.262 308.521 307.768 306.978 306.148 305.338 304.605 303.946 303.329 302.804 302.42 302.195 302.1 302.13 302.278 302.562 302.984 303.498 304.057 304.669 305.358 306.074 306.768 307.433 308.098 308.739 309.336 309.879 310.38 310.845 311.279 311.676 312.035 312.37 312.695 313.008 313.302 313.591 313.89 314.198 314.508 314.831 315.181 315.565 315.975 316.404 316.842 317.289 317.749 318.22 318.697 319.174 319.651 320.147 320.679 321.245 321.835 322.467 323.157 323.92 324.745 325.612 326.504 327.434 328.411 329.39 330.326 331.213 332.074 332.896 333.663 334.36 334.995 335.595 336.188 336.775 337.341 337.902 338.47 339.053 339.643 340.232 340.811 341.385 341.958 342.513 343.036 343.521 343.977 344.404 344.802 345.165 345.492 345.799 346.104 346.399 346.676 346.961 347.277 347.62 347.979 348.378 348.842 349.375 349.963 350.615 351.337 352.142 353.025 353.961 354.928 355.942 357.014 358.089 359.111 360.075 361.012 361.893 362.689 363.38 363.986 364.525 365.019 365.458 365.832 366.177 366.527 366.892 367.251 367.611 367.978 368.362 368.76 369.152 369.521 369.865 370.194 370.5 370.776 371.014 371.219 371.403 371.58 371.747 371.899 372.047 372.203 372.37 372.541 372.717 372.901 373.092 373.289 373.495 373.711 373.939 374.178 374.426 374.681 374.947 375.224 375.502 375.773 376.036 376.298 376.547 376.775 376.978 377.163 377.327 377.47 377.59 377.687 377.767 377.833 377.888 377.927 377.955 377.973 377.981 377.977 377.966 377.95 377.93 377.903 377.874 377.848 377.824 377.8 377.78 377.764
346.047 346.222 346.396 346.557 346.716 346.884 347.067 347.258 347.452 347.64 347.832 348.03 348.21 348.348 348.449 348.525 348.55 348.503 348.372 348.173 347.91 347.59 347.195 346.723 346.22 345.729 345.244 344.742 344.266 343.858 343.529 343.258 343.039 342.868 342.763 342.723 342.706 342.669 342.61 342.552 342.47 342.34 342.147 341.904 341.632 341.349 341.045 340.712 340.383 340.093 339.844 339.618 339.43 339.294 339.217 339.191 339.209 339.262 339.356 339.492 339.659 339.846 340.051 340.282 340.531 340.789 341.052 341.327 341.614 341.919 342.235 342.562 342.913 343.3 343.728 344.188 344.683 345.21 345.783 346.4 347.033 347.654 348.272 348.9 349.502 350.042 350.516 350.943 351.31 351.603 351.813 351.948 352.021 352.042 352.007 351.91 351.772 351.613 351.433 351.221 350.991 350.758 350.523 350.279 350.029 349.777 349.526 349.274 349.016 348.744 348.461 348.167 347.86 347.537 347.194 346.833 346.46 346.081 345.695 345.299 344.9 344.505 344.118 343.733 343.352 342.972 342.598 342.231 341.86 341.474 341.071 340.657 340.23 339.789 339.331 338.856 338.372 337.883 337.389 336.886 336.382 335.881 335.387 334.896 334.407 333.92 333.437 332.956 332.476 331.994 331.508 331.019 330.53 330.042 329.556 329.069 328.585 328.107 327.64 327.181 326.722 326.252 325.778 325.303 324.809 324.276 323.699 323.087 322.441 321.765 321.044 320.28 319.501 318.734 317.98 317.224 316.485 315.781 315.127 314.512 313.915 313.319 312.731 312.161 311.577 310.95 310.264 309.538 308.785 308.019 307.216 306.373 305.55 304.811 304.15 303.537 303.019 302.646 302.435 302.359 302.41 302.577 302.881 303.324 303.858 304.432 305.055 305.752 306.473 307.169 307.834 308.494 309.13 309.721 310.259 310.755 311.216 311.648 312.047 312.409 312.75 313.081 313.403 313.706 314.006 314.315 314.632 314.95 315.281 315.636 316.021 316.431 316.857 317.292 317.735 318.189 318.653 319.124 319.593 320.064 320.552 321.075 321.63 322.209 322.827 323.5 324.242 325.042 325.882 326.744 327.641 328.581 329.523 330.425 331.28 332.11 332.904 333.651 334.335 334.963 335.563 336.162 336.763 337.352 337.939 338.534 339.146 339.769 340.392 341.002 341.605 342.206 342.788 343.332 343.835 344.305 344.743 345.147 345.509 345.832 346.131 346.422 346.699 346.953 347.211 347.5 347.816 348.145 348.514 348.952 349.465 350.036 350.673 351.384 352.184 353.066 354.005 354.971 355.984 357.055 358.128 359.146 360.102 361.029 361.898 362.684 363.368 363.966 364.5 364.994 365.439 365.824 366.183 366.551 366.938 367.323 367.711 368.104 368.513 368.934 369.349 369.738 370.098 370.439 370.756 371.042 371.288 371.5 371.69 371.873 372.048 372.207 372.363 372.528 372.706 372.889 373.079 373.276 373.478 373.687 373.903 374.128 374.363 374.608 374.859 375.117 375.384 375.661 375.938 376.207 376.469 376.728 376.975 377.2 377.4 377.581 377.742 377.881 377.997 378.09 378.165 378.228 378.279 378.315 378.34 378.356 378.362 378.358 378.347 378.332 378.313 378.288 378.262 378.237 378.216 378.196 378.178 378.164
346.623 346.791 346.958 347.113 347.266 347.43 347.611 347.801 347.994 348.182 348.374 348.574 348.755 348.895 348.996 349.071 349.096 349.044 348.907 348.698 348.423 348.089 347.677 347.185 346.661 346.15 345.646 345.127 344.635 344.214 343.879 343.605 343.387 343.221 343.124 343.097 343.095 343.072 343.028 342.986 342.919 342.803 342.62 342.386 342.12 341.842 341.539 341.205 340.874 340.579 340.323 340.089 339.891 339.745 339.656 339.617 339.62 339.661 339.741 339.863 340.018 340.192 340.388 340.61 340.851 341.103 341.363 341.635 341.921 342.226 342.543 342.872 343.226 343.615 344.044 344.505 344.999 345.525 346.095 346.708 347.335 347.951 348.563 349.183 349.778 350.312 350.781 351.203 351.567 351.857 352.066 352.201 352.275 352.298 352.266 352.173 352.04 351.886 351.712 351.507 351.284 351.057 350.828 350.591 350.347 350.099 349.851 349.6 349.341 349.068 348.781 348.482 348.169 347.838 347.487 347.117 346.734 346.346 345.952 345.547 345.139 344.736 344.341 343.95 343.56 343.173 342.791 342.415 342.034 341.639 341.225 340.799 340.36 339.906 339.435 338.947 338.45 337.95 337.446 336.934 336.423 335.919 335.424 334.934 334.45 333.968 333.493 333.023 332.555 332.084 331.608 331.13 330.651 330.172 329.693 329.211 328.732 328.259 327.796 327.342 326.886 326.42 325.95 325.48 324.99 324.461 323.887 323.279 322.638 321.966 321.249 320.489 319.715 318.954 318.207 317.458 316.727 316.032 315.388 314.783 314.197 313.61 313.028 312.463 311.882 311.256 310.568 309.835 309.075 308.302 307.492 306.64 305.81 305.067 304.408 303.799 303.289 302.926 302.73 302.672 302.742 302.928 303.25 303.712 304.262 304.849 305.482 306.184 306.909 307.604 308.266 308.919 309.546 310.129 310.659 311.147 311.601 312.029 312.426 312.79 313.134 313.47 313.799 314.112 314.422 314.741 315.066 315.393 315.73 316.09 316.478 316.887 317.311 317.743 318.182 318.63 319.087 319.551 320.015 320.479 320.96 321.474 322.019 322.587 323.192 323.849 324.569 325.345 326.157 326.99 327.853 328.756 329.66 330.526 331.348 332.147 332.913 333.639 334.311 334.933 335.534 336.14 336.757 337.369 337.984 338.609 339.252 339.91 340.566 341.209 341.84 342.469 343.075 343.64 344.159 344.643 345.09 345.499 345.862 346.181 346.472 346.751 347.011 347.243 347.477 347.741 348.031 348.331 348.673 349.088 349.58 350.134 350.757 351.458 352.252 353.134 354.073 355.039 356.049 357.116 358.185 359.195 360.141 361.053 361.908 362.682 363.356 363.944 364.472 364.965 365.416 365.812 366.186 366.573 366.982 367.394 367.811 368.231 368.664 369.11 369.548 369.956 370.332 370.685 371.012 371.307 371.561 371.779 371.976 372.166 372.348 372.516 372.681 372.856 373.045 373.242 373.445 373.654 373.868 374.088 374.315 374.548 374.79 375.04 375.296 375.556 375.825 376.102 376.38 376.648 376.909 377.168 377.414 377.637 377.836 378.016 378.175 378.313 378.427 378.518 378.591 378.653 378.703 378.738 378.762 378.778 378.786 378.783 378.773 378.761 378.745 378.723 378.699 378.678 378.66 378.643 378.628 378.618
347.187 347.345 347.503 347.65 347.797 347.955 348.131 348.318 348.508 348.695 348.887 349.087 349.27 349.41 349.512 349.588 349.611 349.557 349.413 349.197 348.912 348.567 348.139 347.63 347.087 346.56 346.04 345.504 344.997 344.566 344.225 343.95 343.734 343.572 343.484 343.47 343.483 343.475 343.446 343.42 343.369 343.265 343.093 342.868 342.608 342.333 342.032 341.696 341.361 341.06 340.797 340.553 340.344 340.186 340.085 340.033 340.023 340.05 340.118 340.228 340.37 340.535 340.721 340.936 341.17 341.417 341.673 341.944 342.23 342.534 342.852 343.183 343.538 343.928 344.356 344.817 345.309 345.831 346.396 347.001 347.621 348.228 348.832 349.443 350.028 350.554 351.017 351.434 351.794 352.082 352.29 352.426 352.501 352.528 352.5 352.412 352.284 352.136 351.969 351.77 351.555 351.334 351.112 350.881 350.642 350.399 350.153 349.905 349.647 349.373 349.083 348.779 348.461 348.124 347.766 347.388 346.997 346.601 346.198 345.786 345.371 344.961 344.559 344.161 343.765 343.37 342.98 342.595 342.206 341.8 341.375 340.938 340.487 340.022 339.539 339.038 338.529 338.018 337.505 336.986 336.469 335.961 335.466 334.978 334.498 334.022 333.555 333.095 332.637 332.176 331.709 331.241 330.771 330.3 329.827 329.35 328.876 328.407 327.949 327.5 327.051 326.59 326.125 325.66 325.175 324.652 324.083 323.479 322.843 322.174 321.461 320.705 319.933 319.176 318.434 317.691 316.966 316.278 315.643 315.049 314.473 313.895 313.322 312.764 312.19 311.568 310.881 310.148 309.384 308.609 307.795 306.938 306.103 305.359 304.702 304.098 303.595 303.243 303.061 303.021 303.111 303.316 303.656 304.136 304.703 305.304 305.944 306.652 307.379 308.073 308.73 309.374 309.99 310.563 311.083 311.56 312.004 312.424 312.818 313.181 313.525 313.865 314.199 314.521 314.841 315.168 315.502 315.836 316.181 316.545 316.934 317.343 317.766 318.195 318.629 319.071 319.522 319.979 320.436 320.895 321.37 321.875 322.411 322.968 323.561 324.201 324.901 325.652 326.438 327.24 328.069 328.933 329.798 330.628 331.417 332.182 332.919 333.624 334.284 334.901 335.504 336.119 336.753 337.391 338.036 338.692 339.368 340.062 340.755 341.43 342.091 342.746 343.376 343.962 344.497 344.992 345.448 345.861 346.224 346.54 346.823 347.091 347.336 347.548 347.76 348.001 348.266 348.54 348.855 349.247 349.72 350.256 350.865 351.555 352.343 353.224 354.164 355.128 356.132 357.194 358.254 359.254 360.186 361.081 361.918 362.677 363.338 363.915 364.435 364.926 365.382 365.79 366.18 366.587 367.019 367.46 367.906 368.354 368.813 369.284 369.745 370.173 370.564 370.93 371.266 371.57 371.833 372.057 372.259 372.455 372.647 372.824 372.999 373.185 373.386 373.596 373.813 374.035 374.261 374.492 374.728 374.971 375.219 375.474 375.733 375.997 376.268 376.546 376.823 377.092 377.354 377.612 377.858 378.082 378.281 378.461 378.62 378.758 378.873 378.964 379.037 379.1 379.151 379.188 379.214 379.233 379.244 379.244 379.239 379.23 379.218 379.201 379.183 379.166 379.153 379.14 379.129 379.121
347.738 347.885 348.033 348.17 348.308 348.459 348.629 348.811 348.999 349.183 349.374 349.575 349.758 349.898 350 350.077 350.1 350.043 349.895 349.672 349.379 349.023 348.583 348.058 347.499 346.956 346.422 345.871 345.352 344.913 344.568 344.291 344.078 343.921 343.843 343.842 343.87 343.878 343.864 343.855 343.82 343.729 343.567 343.351 343.098 342.826 342.525 342.187 341.846 341.539 341.267 341.013 340.792 340.621 340.508 340.442 340.419 340.434 340.489 340.588 340.72 340.874 341.053 341.261 341.489 341.732 341.985 342.254 342.539 342.843 343.161 343.493 343.849 344.238 344.665 345.123 345.612 346.129 346.686 347.282 347.892 348.489 349.081 349.681 350.256 350.772 351.228 351.639 351.994 352.28 352.487 352.625 352.703 352.733 352.71 352.628 352.507 352.366 352.205 352.014 351.805 351.592 351.376 351.151 350.918 350.679 350.437 350.191 349.934 349.66 349.368 349.061 348.738 348.396 348.032 347.647 347.249 346.846 346.437 346.017 345.596 345.179 344.771 344.367 343.965 343.564 343.166 342.773 342.374 341.959 341.524 341.076 340.614 340.137 339.643 339.131 338.61 338.09 337.569 337.043 336.521 336.01 335.514 335.029 334.553 334.083 333.622 333.171 332.723 332.271 331.813 331.353 330.89 330.426 329.958 329.486 329.016 328.552 328.1 327.658 327.215 326.761 326.303 325.845 325.367 324.849 324.285 323.687 323.055 322.391 321.681 320.926 320.156 319.402 318.663 317.923 317.203 316.521 315.894 315.31 314.746 314.178 313.614 313.067 312.503 311.888 311.206 310.475 309.713 308.938 308.124 307.265 306.429 305.686 305.032 304.433 303.938 303.596 303.428 303.406 303.515 303.739 304.097 304.595 305.179 305.792 306.441 307.153 307.881 308.573 309.223 309.856 310.459 311.02 311.527 311.991 312.422 312.832 313.22 313.579 313.923 314.264 314.603 314.933 315.262 315.597 315.938 316.28 316.631 317 317.391 317.8 318.221 318.647 319.076 319.513 319.958 320.409 320.86 321.313 321.782 322.279 322.806 323.354 323.935 324.559 325.238 325.965 326.722 327.494 328.288 329.113 329.937 330.731 331.485 332.215 332.923 333.607 334.255 334.868 335.473 336.099 336.751 337.416 338.094 338.783 339.494 340.225 340.956 341.665 342.356 343.038 343.692 344.297 344.847 345.354 345.817 346.234 346.598 346.91 347.187 347.445 347.675 347.869 348.06 348.279 348.521 348.77 349.06 349.429 349.883 350.402 350.996 351.675 352.457 353.337 354.276 355.237 356.235 357.288 358.338 359.325 360.24 361.114 361.931 362.673 363.319 363.882 364.393 364.881 365.343 365.762 366.17 366.596 367.053 367.523 368 368.477 368.962 369.459 369.943 370.391 370.797 371.175 371.521 371.833 372.103 372.333 372.54 372.744 372.944 373.131 373.318 373.515 373.73 373.954 374.184 374.419 374.657 374.899 375.146 375.397 375.652 375.911 376.175 376.441 376.714 376.994 377.272 377.542 377.805 378.064 378.311 378.536 378.737 378.918 379.079 379.219 379.335 379.428 379.503 379.568 379.623 379.664 379.695 379.718 379.734 379.74 379.74 379.738 379.732 379.721 379.709 379.698 379.69 379.683 379.676 379.672
348.269 348.403 348.541 348.668 348.796 348.939 349.102 349.28 349.463 349.643 349.832 350.032 350.215 350.355 350.456 350.532 350.554 350.494 350.342 350.112 349.812 349.448 348.997 348.459 347.887 347.333 346.787 346.225 345.697 345.251 344.905 344.63 344.42 344.271 344.203 344.217 344.26 344.283 344.284 344.291 344.271 344.194 344.042 343.834 343.587 343.318 343.017 342.675 342.329 342.015 341.735 341.469 341.236 341.054 340.928 340.849 340.813 340.816 340.86 340.948 341.07 341.216 341.387 341.588 341.811 342.05 342.3 342.567 342.851 343.154 343.471 343.803 344.159 344.547 344.971 345.425 345.908 346.419 346.967 347.552 348.15 348.736 349.317 349.905 350.468 350.975 351.423 351.828 352.178 352.461 352.669 352.808 352.889 352.924 352.906 352.83 352.716 352.581 352.427 352.243 352.042 351.834 351.625 351.406 351.179 350.945 350.706 350.463 350.208 349.934 349.641 349.331 349.004 348.658 348.289 347.898 347.493 347.084 346.669 346.243 345.816 345.393 344.98 344.571 344.163 343.755 343.35 342.95 342.543 342.119 341.675 341.217 340.745 340.259 339.754 339.232 338.701 338.172 337.644 337.112 336.585 336.071 335.575 335.092 334.619 334.153 333.698 333.255 332.815 332.37 331.919 331.466 331.01 330.552 330.088 329.62 329.153 328.694 328.249 327.814 327.378 326.932 326.482 326.031 325.561 325.051 324.494 323.902 323.276 322.615 321.908 321.155 320.386 319.634 318.897 318.16 317.443 316.767 316.148 315.573 315.019 314.462 313.911 313.377 312.825 312.222 311.549 310.826 310.072 309.304 308.495 307.64 306.808 306.07 305.423 304.831 304.344 304.012 303.858 303.853 303.979 304.218 304.591 305.105 305.701 306.324 306.977 307.691 308.417 309.104 309.744 310.363 310.951 311.495 311.988 312.434 312.85 313.248 313.628 313.981 314.322 314.663 315.006 315.343 315.68 316.024 316.372 316.722 317.081 317.455 317.848 318.258 318.677 319.101 319.527 319.959 320.397 320.843 321.289 321.737 322.2 322.691 323.209 323.748 324.317 324.925 325.584 326.286 327.015 327.755 328.514 329.298 330.081 330.837 331.555 332.251 332.929 333.591 334.228 334.838 335.448 336.084 336.757 337.451 338.162 338.885 339.632 340.402 341.171 341.914 342.633 343.342 344.018 344.642 345.207 345.725 346.194 346.615 346.98 347.289 347.559 347.808 348.025 348.203 348.375 348.575 348.796 349.021 349.288 349.636 350.072 350.575 351.155 351.823 352.598 353.476 354.413 355.37 356.359 357.402 358.439 359.412 360.308 361.16 361.955 362.677 363.308 363.856 364.357 364.841 365.308 365.74 366.165 366.612 367.093 367.593 368.101 368.607 369.118 369.639 370.146 370.613 371.034 371.422 371.777 372.097 372.374 372.609 372.822 373.033 373.243 373.441 373.639 373.849 374.077 374.315 374.56 374.807 375.057 375.31 375.567 375.827 376.089 376.354 376.622 376.893 377.169 377.451 377.732 378.004 378.269 378.531 378.781 379.009 379.213 379.397 379.562 379.706 379.825 379.922 380.001 380.071 380.131 380.178 380.215 380.244 380.267 380.28 380.287 380.291 380.292 380.289 380.284 380.279 380.277 380.275 380.273 380.272
